-0.411871 -0.481045 -0.079258 0.300000 0.000000 0.600000
-0.426589 0.738327 -0.379356 0.000000 0.500000 0.500000
-0.414714 0.033845 0.016409 0.000000 0.500000 0.500000
-0.256719 0.676564 0.457435 0.800000 0.200000 0.500000
-0.370748 -0.097643 0.489245 0.300000 0.000000 0.600000
-0.274967 0.448672 -0.496856 0.600000 0.000000 0.300000
-0.227701 0.620495 0.489245 0.600000 0.000000 0.300000
0.026690 0.462643 0.475671 0.600000 0.000000 0.300000
-0.414714 0.056371 0.345097 0.000000 0.500000 0.500000
0.232764 -0.481045 0.441935 0.300000 0.000000 0.600000
-0.296120 -0.007271 0.508686 0.300000 0.000000 0.600000
-0.051668 -0.187346 -0.496856 0.600000 0.000000 0.300000
-0.023174 -0.481045 -0.134178 0.300000 0.000000 0.600000
-0.439039 -0.398283 0.489245 0.600000 0.000000 0.300000
0.228507 0.728021 -0.496856 0.300000 0.000000 0.600000
-0.390363 0.670471 -0.486253 0.600000 0.000000 0.300000
0.422942 0.244831 -0.186735 0.300000 0.600000 0.000000
0.140249 0.510745 0.489245 0.600000 0.000000 0.300000
0.390471 0.266030 0.457435 0.300000 0.000000 0.600000
0.438847 -0.669566 0.286495 0.800000 0.200000 0.500000
-0.305543 -0.006479 -0.486253 0.600000 0.000000 0.300000
-0.414714 -0.068642 0.429064 0.000000 0.500000 0.500000
-0.298294 -0.080975 0.489245 0.300000 0.000000 0.600000
-0.267550 -0.536885 -0.528665 0.000000 0.000000 1.000000
0.422942 0.068199 0.299795 0.300000 0.600000 0.000000
-0.055689 0.673531 -0.486253 0.600000 0.000000 0.300000
0.438847 0.061268 -0.323939 0.300000 0.600000 0.000000
0.152676 0.312265 -0.486253 0.600000 0.000000 0.300000
0.227691 0.736063 0.489245 0.800000 0.200000 0.500000
0.422942 -0.657061 0.120936 0.800000 0.200000 0.500000
0.438847 -0.556340 -0.475872 0.800000 0.200000 0.500000
0.399170 -0.481045 0.309352 0.300000 0.000000 0.600000
-0.414714 0.075761 -0.314339 0.000000 0.500000 0.500000
0.425118 0.329924 -0.528665 0.300000 0.600000 0.000000
0.438847 0.263473 0.155979 0.300000 0.600000 0.000000
-0.430618 -0.573929 -0.143614 0.600000 0.000000 0.300000
-0.414714 0.338547 -0.216496 0.000000 0.500000 0.500000
-0.079767 -0.411445 0.489245 0.300000 0.000000 0.600000
0.387892 -0.090015 -0.486253 0.600000 0.000000 0.300000
0.271219 0.509179 -0.496856 0.600000 0.000000 0.300000
0.398863 0.557824 0.521055 0.600000 0.000000 0.300000
-0.088737 0.736713 0.489245 0.800000 0.200000 0.500000
0.205457 0.375222 0.521055 0.300000 0.000000 0.600000
-0.373904 0.603715 0.521055 0.600000 0.000000 0.300000
0.246586 -0.299842 0.489245 0.300000 0.000000 0.600000
-0.012107 -0.481045 0.044323 0.300000 0.000000 0.600000
0.029539 -0.481045 -0.261965 0.300000 0.000000 0.600000
-0.106264 -0.518592 0.457435 0.600000 0.300000 0.000000
-0.414714 0.576853 -0.045528 0.000000 0.500000 0.500000
0.002145 0.018116 -0.496856 0.600000 0.000000 0.300000
-0.429194 -0.724920 -0.231207 0.600000 0.000000 0.300000
0.438847 0.049398 0.413340 0.300000 0.600000 0.000000
-0.163108 0.285833 0.489245 0.300000 0.000000 0.600000
0.438847 0.528744 0.110584 0.300000 0.600000 0.000000
-0.254049 0.683721 -0.486253 0.600000 0.000000 0.300000
0.446313 0.302717 0.489245 0.300000 0.000000 0.600000
-0.280564 -0.481045 0.079993 0.300000 0.000000 0.600000
-0.288875 -0.481045 -0.222186 0.300000 0.000000 0.600000
-0.430618 -0.482030 -0.463674 0.000000 0.500000 0.500000
0.163470 -0.380176 -0.486253 0.600000 0.000000 0.300000
-0.414714 -0.549442 0.210919 0.600000 0.000000 0.300000
-0.210879 0.182669 0.521055 0.300000 0.000000 0.600000
-0.092524 0.209213 0.521055 0.300000 0.000000 0.600000
0.438847 0.583800 0.233230 0.300000 0.600000 0.000000
0.394940 0.035280 0.521055 0.300000 0.000000 0.600000
0.205563 -0.583991 -0.528665 0.000000 0.000000 1.000000
0.438847 0.020597 -0.116858 0.300000 0.600000 0.000000
0.291183 -0.106502 -0.486253 0.600000 0.000000 0.300000
-0.430618 -0.050963 0.358822 0.000000 0.500000 0.500000
-0.414714 -0.610136 0.112220 0.600000 0.000000 0.300000
0.282531 0.125726 -0.486253 0.600000 0.000000 0.300000
-0.414714 -0.554413 -0.348053 0.600000 0.000000 0.300000
-0.078879 -0.464352 -0.486253 0.600000 0.000000 0.300000
-0.309149 -0.502252 -0.412961 0.300000 0.000000 0.600000
-0.368232 0.431609 -0.496856 0.600000 0.000000 0.300000
0.198566 -0.189916 0.489245 0.300000 0.000000 0.600000
0.404675 0.498766 0.457435 0.300000 0.000000 0.600000
-0.430618 0.389387 -0.087873 0.000000 0.500000 0.500000
0.314604 -0.481045 -0.194466 0.300000 0.000000 0.600000
0.193821 0.462643 0.465570 0.600000 0.000000 0.300000
-0.373260 -0.481045 0.399307 0.300000 0.000000 0.600000
0.328938 -0.337660 0.521055 0.300000 0.000000 0.600000
0.107884 -0.659634 -0.496856 0.000000 0.000000 1.000000
0.449450 0.166542 0.484893 0.300000 0.000000 0.600000
-0.243899 -0.317071 0.489245 0.300000 0.000000 0.600000
-0.414714 -0.042853 0.011277 0.000000 0.500000 0.500000
0.043598 -0.561042 -0.496856 0.000000 0.000000 1.000000
0.438847 0.433097 -0.223870 0.300000 0.600000 0.000000
0.422942 -0.058878 0.108785 0.300000 0.600000 0.000000
-0.414714 -0.124209 0.190760 0.000000 0.500000 0.500000
-0.414714 -0.171074 -0.034005 0.000000 0.500000 0.500000
0.438847 0.556105 -0.199139 0.300000 0.600000 0.000000
-0.369888 -0.502252 -0.334657 0.300000 0.000000 0.600000
-0.414714 0.111404 -0.232782 0.000000 0.500000 0.500000
0.422942 0.725462 0.222053 0.300000 0.600000 0.000000
-0.414714 -0.132187 -0.256184 0.000000 0.500000 0.500000
0.422942 -0.048293 0.338227 0.300000 0.600000 0.000000
-0.303290 -0.402449 0.519925 0.300000 0.000000 0.600000
0.385831 -0.283161 0.457876 0.300000 0.000000 0.600000
0.135755 0.443324 -0.496856 0.600000 0.000000 0.300000
0.422942 -0.019686 -0.447816 0.300000 0.600000 0.000000
-0.305511 0.516155 0.521055 0.600000 0.000000 0.300000
-0.441222 0.288416 0.488649 0.600000 0.000000 0.300000
0.268537 -0.534062 -0.528665 0.000000 0.000000 1.000000
-0.025519 -0.342033 0.489245 0.300000 0.000000 0.600000
0.426526 0.439353 -0.528665 0.300000 0.600000 0.000000
-0.414714 -0.228186 0.277698 0.000000 0.500000 0.500000
0.023296 -0.521610 0.489245 0.600000 0.300000 0.000000
0.438847 -0.189122 0.418449 0.300000 0.600000 0.000000
0.054328 0.525533 -0.486253 0.600000 0.000000 0.300000
-0.170618 -0.063987 0.489245 0.300000 0.000000 0.600000
-0.076444 0.370948 0.521055 0.300000 0.000000 0.600000
0.438847 -0.381155 0.138621 0.300000 0.600000 0.000000
-0.430618 0.411919 -0.306916 0.000000 0.500000 0.500000
-0.414714 -0.178826 0.334013 0.000000 0.500000 0.500000
-0.041574 0.543347 0.521055 0.600000 0.000000 0.300000
-0.155454 0.400624 0.457435 0.600000 0.000000 0.300000
-0.219791 0.102622 -0.496856 0.600000 0.000000 0.300000
0.385895 -0.685019 -0.528665 0.000000 0.000000 1.000000
-0.414714 -0.112869 -0.178982 0.000000 0.500000 0.500000
0.217295 0.427739 -0.486253 0.600000 0.000000 0.300000
0.378859 -0.502252 0.076175 0.300000 0.000000 0.600000
0.114893 0.083235 -0.496856 0.600000 0.000000 0.300000
-0.346754 -0.470442 0.470882 0.600000 0.300000 0.000000
-0.152441 0.674707 0.481366 0.800000 0.200000 0.500000
0.109709 -0.502252 -0.466606 0.300000 0.000000 0.600000
0.438847 -0.148834 -0.198522 0.300000 0.600000 0.000000
-0.430618 -0.411336 -0.049693 0.000000 0.500000 0.500000
-0.385002 0.106580 0.521055 0.300000 0.000000 0.600000
-0.094335 -0.237999 0.521055 0.300000 0.000000 0.600000
0.403496 -0.373013 0.517023 0.300000 0.000000 0.600000
-0.414714 -0.309019 -0.393215 0.000000 0.500000 0.500000
0.438847 -0.364227 -0.447271 0.300000 0.600000 0.000000
0.438847 -0.050031 -0.247216 0.300000 0.600000 0.000000
0.385831 -0.112261 0.463006 0.300000 0.000000 0.600000
-0.078340 0.313241 -0.486253 0.600000 0.000000 0.300000
0.422942 0.358792 0.247948 0.300000 0.600000 0.000000
0.313532 0.465843 0.521055 0.600000 0.000000 0.300000
0.422942 -0.662382 0.212503 0.800000 0.200000 0.500000
-0.430618 -0.200991 -0.475382 0.000000 0.500000 0.500000
0.284941 -0.452732 -0.486253 0.600000 0.000000 0.300000
0.351782 0.722816 0.489245 0.800000 0.200000 0.500000
0.422942 -0.342647 -0.383894 0.300000 0.600000 0.000000
-0.414714 -0.242403 0.192913 0.000000 0.500000 0.500000
0.385831 0.178297 0.478577 0.300000 0.000000 0.600000
-0.150560 -0.570316 -0.496856 0.000000 0.000000 1.000000
0.422942 0.238789 -0.095601 0.300000 0.600000 0.000000
-0.414714 0.149408 0.453760 0.000000 0.500000 0.500000
0.438847 0.661348 -0.113081 0.300000 0.600000 0.000000
0.017460 -0.502252 -0.484983 0.300000 0.000000 0.600000
0.205364 -0.502252 0.297374 0.300000 0.000000 0.600000
-0.441222 0.423147 0.474237 0.600000 0.000000 0.300000
-0.402314 0.695501 0.509719 0.600000 0.000000 0.300000
0.381010 0.208795 -0.486253 0.600000 0.000000 0.300000
0.208192 0.011489 -0.486253 0.600000 0.000000 0.300000
0.090642 0.635110 -0.528665 0.300000 0.000000 0.600000
0.122143 0.127427 0.521055 0.300000 0.000000 0.600000
0.025208 -0.502252 -0.363764 0.300000 0.000000 0.600000
-0.302568 0.686814 -0.528665 0.300000 0.000000 0.600000
0.031886 0.682555 0.457435 0.800000 0.200000 0.500000
0.337184 0.064156 0.521055 0.300000 0.000000 0.600000
-0.034846 -0.481045 -0.260641 0.300000 0.000000 0.600000
-0.414714 -0.497130 0.044073 0.300000 0.000000 0.600000
-0.377602 -0.376321 0.459058 0.600000 0.000000 0.300000
-0.430618 0.237853 -0.437661 0.000000 0.500000 0.500000
0.422942 0.656351 0.165062 0.300000 0.600000 0.000000
0.257711 0.021910 0.521055 0.300000 0.000000 0.600000
-0.430618 -0.292646 -0.013301 0.000000 0.500000 0.500000
0.387906 -0.481045 -0.316302 0.300000 0.000000 0.600000
-0.414714 -0.412000 0.026600 0.000000 0.500000 0.500000
0.438847 0.476614 0.066776 0.300000 0.600000 0.000000
-0.371142 -0.534083 -0.496856 0.000000 0.000000 1.000000
-0.414714 -0.251731 -0.213561 0.000000 0.500000 0.500000
-0.130488 -0.329754 0.521055 0.300000 0.000000 0.600000
0.024522 -0.502252 0.161519 0.300000 0.000000 0.600000
0.422942 0.029424 -0.203563 0.300000 0.600000 0.000000
0.316594 -0.636465 0.340800 1.000000 0.000000 0.000000
0.438847 -0.597949 -0.329758 0.800000 0.200000 0.500000
-0.430618 -0.429018 -0.426799 0.000000 0.500000 0.500000
-0.216519 -0.502252 -0.400792 0.300000 0.000000 0.600000
0.438847 -0.695415 -0.083270 0.800000 0.200000 0.500000
0.072774 -0.291732 -0.496856 0.600000 0.000000 0.300000
0.238967 0.551754 0.489245 0.600000 0.000000 0.300000
0.438847 0.539347 -0.465589 0.300000 0.600000 0.000000
0.438847 -0.178862 0.105134 0.300000 0.600000 0.000000
-0.414714 0.660034 -0.337576 0.000000 0.500000 0.500000
0.422942 0.107263 0.432917 0.300000 0.600000 0.000000
-0.430618 0.594917 0.217483 0.000000 0.500000 0.500000
0.422942 0.473504 0.220778 0.300000 0.600000 0.000000
-0.270565 -0.502252 -0.282073 0.300000 0.000000 0.600000
-0.070371 -0.578846 -0.496856 0.000000 0.000000 1.000000
-0.088274 -0.670746 -0.528665 0.000000 0.000000 1.000000
0.438847 0.045119 -0.439252 0.300000 0.600000 0.000000
-0.430618 0.509320 0.332728 0.000000 0.500000 0.500000
0.078714 0.011037 -0.486253 0.600000 0.000000 0.300000
-0.095215 0.526074 -0.486253 0.600000 0.000000 0.300000
-0.414714 -0.332230 0.291274 0.000000 0.500000 0.500000
-0.430618 -0.688805 -0.349896 0.600000 0.000000 0.300000
-0.048054 0.691822 0.513758 0.600000 0.000000 0.300000
-0.027343 0.412695 0.515887 0.300000 0.000000 0.600000
0.389408 0.029814 0.457435 0.300000 0.000000 0.600000
0.219396 0.279179 -0.486253 0.600000 0.000000 0.300000
-0.165116 -0.644950 -0.496856 0.000000 0.000000 1.000000
0.393461 0.565832 0.457435 0.300000 0.000000 0.600000
0.422941 -0.481224 -0.015056 0.300000 0.000000 0.600000
0.142087 -0.502252 0.136619 0.300000 0.000000 0.600000
0.422942 -0.115317 0.203146 0.300000 0.600000 0.000000
0.438847 0.451132 -0.327225 0.300000 0.600000 0.000000
0.422942 -0.658664 -0.004455 0.800000 0.200000 0.500000
0.422942 0.085660 0.013915 0.300000 0.600000 0.000000
-0.299575 0.324990 -0.496856 0.600000 0.000000 0.300000
0.205354 -0.502252 0.176329 0.300000 0.000000 0.600000
-0.293178 0.567909 -0.486253 0.600000 0.000000 0.300000
-0.430618 0.203121 -0.318462 0.000000 0.500000 0.500000
-0.414714 -0.704948 -0.098940 0.600000 0.000000 0.300000
-0.118701 -0.481045 0.348734 0.300000 0.000000 0.600000
-0.106654 0.248415 -0.486253 0.600000 0.000000 0.300000
-0.414714 0.036652 0.212572 0.000000 0.500000 0.500000
-0.099648 -0.004955 0.521055 0.300000 0.000000 0.600000
0.159417 -0.534061 0.476948 0.600000 0.300000 0.000000
-0.430618 0.230839 -0.114862 0.000000 0.500000 0.500000
-0.414714 0.483124 0.042085 0.000000 0.500000 0.500000
0.422942 0.578884 -0.333682 0.300000 0.600000 0.000000
-0.374472 -0.502252 -0.141865 0.300000 0.000000 0.600000
-0.430618 0.427811 -0.473951 0.000000 0.500000 0.500000
0.202244 -0.454435 -0.486253 0.600000 0.000000 0.300000
0.304312 -0.502252 -0.106131 0.300000 0.000000 0.600000
0.438847 -0.018539 -0.321027 0.300000 0.600000 0.000000
0.267280 0.670335 0.521055 0.600000 0.000000 0.300000
-0.221561 0.738327 0.460740 0.800000 0.200000 0.500000
-0.306304 0.626235 0.489245 0.600000 0.000000 0.300000
0.390522 -0.363007 0.457435 0.300000 0.000000 0.600000
0.255663 0.358523 0.489245 0.300000 0.000000 0.600000
0.092904 0.023557 0.521055 0.300000 0.000000 0.600000
-0.279552 -0.538635 0.340800 1.000000 0.000000 0.000000
0.422942 -0.094906 -0.078552 0.300000 0.600000 0.000000
0.258143 0.169192 0.489245 0.300000 0.000000 0.600000
0.151615 -0.534839 -0.528665 0.000000 0.000000 1.000000
-0.359618 0.638103 -0.528665 0.300000 0.000000 0.600000
-0.246932 0.609485 -0.496856 0.600000 0.000000 0.300000
0.308017 -0.502252 0.053045 0.300000 0.000000 0.600000
-0.430618 0.622289 0.140129 0.000000 0.500000 0.500000
-0.377989 -0.697480 -0.496856 0.000000 0.000000 1.000000
-0.414714 0.339268 0.040559 0.000000 0.500000 0.500000
0.422942 -0.435852 0.227079 0.300000 0.600000 0.000000
0.422942 0.139919 -0.175909 0.300000 0.600000 0.000000
0.288421 -0.163862 0.489245 0.300000 0.000000 0.600000
0.248279 0.441578 0.507253 0.600000 0.000000 0.300000
-0.349211 0.018809 0.489245 0.300000 0.000000 0.600000
-0.390102 -0.146273 0.521055 0.300000 0.000000 0.600000
0.445081 -0.030995 0.489245 0.300000 0.000000 0.600000
0.352887 0.598410 0.521055 0.600000 0.000000 0.300000
-0.383563 0.685311 0.370829 1.000000 0.000000 0.000000
0.441442 -0.471971 0.489245 0.300000 0.000000 0.600000
-0.061662 0.462643 0.467006 0.600000 0.000000 0.300000
-0.430618 0.087242 -0.019482 0.000000 0.500000 0.500000
-0.414714 -0.050488 0.136488 0.000000 0.500000 0.500000
0.422942 -0.463308 -0.369606 0.300000 0.600000 0.000000
-0.414714 0.510753 -0.035986 0.000000 0.500000 0.500000
0.401125 -0.231750 0.519898 0.300000 0.000000 0.600000
0.406178 0.685311 0.431612 0.000000 1.000000 0.000000
0.354691 0.439634 -0.486253 0.600000 0.000000 0.300000
-0.430618 0.113036 0.118546 0.000000 0.500000 0.500000
-0.414714 -0.665994 -0.277089 0.600000 0.000000 0.300000
0.379440 -0.481045 -0.212297 0.300000 0.000000 0.600000
0.139705 -0.502252 -0.405701 0.300000 0.000000 0.600000
-0.211064 0.090630 0.521055 0.300000 0.000000 0.600000
-0.296351 0.401131 0.457435 0.600000 0.000000 0.300000
-0.203637 -0.354343 0.521055 0.300000 0.000000 0.600000
0.109522 0.381405 -0.496856 0.600000 0.000000 0.300000
-0.035686 -0.514710 0.340800 1.000000 0.000000 0.000000
-0.253988 -0.481045 0.198043 0.300000 0.000000 0.600000
0.422942 0.525512 -0.385635 0.300000 0.600000 0.000000
0.000905 0.024498 0.521055 0.300000 0.000000 0.600000
0.111331 0.703185 -0.528665 0.300000 0.000000 0.600000
0.180611 -0.177145 -0.496856 0.600000 0.000000 0.300000
-0.383254 0.126447 -0.486253 0.600000 0.000000 0.300000
0.171925 -0.068848 0.521055 0.300000 0.000000 0.600000
0.438847 0.215571 -0.466447 0.300000 0.600000 0.000000
0.422942 -0.146801 -0.323498 0.300000 0.600000 0.000000
-0.414714 0.012677 -0.116779 0.000000 0.500000 0.500000
0.216279 -0.078370 -0.486253 0.600000 0.000000 0.300000
0.321389 0.680004 0.457435 0.800000 0.200000 0.500000
0.422942 0.381758 0.304088 0.300000 0.600000 0.000000
-0.321321 0.199801 -0.496856 0.600000 0.000000 0.300000
-0.285006 -0.531052 0.457435 0.600000 0.300000 0.000000
-0.441222 -0.163225 0.487320 0.600000 0.000000 0.300000
-0.430618 -0.447136 -0.183062 0.000000 0.500000 0.500000
0.339308 0.261708 0.489245 0.300000 0.000000 0.600000
0.438847 0.734803 0.067122 0.300000 0.600000 0.000000
-0.414714 0.493304 0.259140 0.000000 0.500000 0.500000
0.376626 -0.502252 0.136506 0.300000 0.000000 0.600000
0.023412 0.614910 0.521055 0.600000 0.000000 0.300000
0.438847 0.599741 -0.478357 0.300000 0.600000 0.000000
-0.430618 -0.085014 -0.527224 0.000000 0.500000 0.500000
0.374137 0.146983 -0.486253 0.600000 0.000000 0.300000
0.100437 -0.481045 0.009828 0.300000 0.000000 0.600000
-0.065428 0.191206 -0.496856 0.600000 0.000000 0.300000
0.174777 -0.680476 -0.528665 0.000000 0.000000 1.000000
0.011822 -0.191971 0.521055 0.300000 0.000000 0.600000
0.272830 -0.523486 0.457435 0.600000 0.300000 0.000000
0.438847 -0.648842 -0.122988 0.800000 0.200000 0.500000
0.309604 0.619580 -0.528665 0.300000 0.000000 0.600000
0.422942 0.615181 0.440091 0.300000 0.600000 0.000000
0.422942 -0.643091 -0.293525 0.800000 0.200000 0.500000
-0.099493 -0.502252 -0.205338 0.300000 0.000000 0.600000
-0.430618 0.183729 -0.236262 0.000000 0.500000 0.500000
0.422942 -0.398496 0.357138 0.300000 0.600000 0.000000
0.422942 0.568995 -0.004380 0.300000 0.600000 0.000000
-0.198590 -0.160366 -0.496856 0.600000 0.000000 0.300000
-0.251163 -0.719611 -0.528665 0.000000 0.000000 1.000000
0.438847 0.171785 0.349924 0.300000 0.600000 0.000000
0.025429 -0.706137 0.356705 1.000000 0.000000 0.000000
0.385831 -0.436920 0.473247 0.300000 0.000000 0.600000
-0.430618 -0.627865 0.238376 0.600000 0.000000 0.300000
0.422942 -0.314242 0.019468 0.300000 0.600000 0.000000
-0.003471 -0.481045 -0.019118 0.300000 0.000000 0.600000
-0.289368 -0.502252 -0.047813 0.300000 0.000000 0.600000
-0.414714 -0.577079 0.350765 0.600000 0.000000 0.300000
0.219922 -0.246436 0.489245 0.300000 0.000000 0.600000
-0.173814 -0.724920 -0.497768 0.000000 0.000000 1.000000
-0.321668 0.462643 0.474666 0.600000 0.000000 0.300000
0.438847 0.019402 0.356680 0.300000 0.600000 0.000000
-0.414714 0.141768 0.198551 0.000000 0.500000 0.500000
0.269452 -0.502252 0.246901 0.300000 0.000000 0.600000
0.140135 0.195322 0.521055 0.300000 0.000000 0.600000
0.422942 -0.037347 0.004654 0.300000 0.600000 0.000000
-0.241498 -0.350545 -0.486253 0.600000 0.000000 0.300000
-0.414714 0.163979 -0.451834 0.000000 0.500000 0.500000
0.422942 0.324099 0.369689 0.300000 0.600000 0.000000
0.438847 0.092741 -0.474965 0.300000 0.600000 0.000000
-0.315921 0.081427 -0.486253 0.600000 0.000000 0.300000
-0.143863 0.006720 -0.496856 0.600000 0.000000 0.300000
-0.057949 0.407875 -0.486253 0.600000 0.000000 0.300000
-0.185684 0.139374 0.489245 0.300000 0.000000 0.600000
-0.095918 0.728802 -0.496856 0.300000 0.000000 0.600000
-0.223853 0.501660 0.521055 0.600000 0.000000 0.300000
-0.283923 0.682279 0.521055 0.600000 0.000000 0.300000
0.091209 0.695907 0.507875 0.600000 0.000000 0.300000
-0.414714 0.581201 0.320799 0.000000 0.500000 0.500000
0.082921 -0.571167 0.340800 1.000000 0.000000 0.000000
0.438847 0.179123 -0.067078 0.300000 0.600000 0.000000
-0.127270 -0.502252 -0.314929 0.300000 0.000000 0.600000
-0.430618 0.338091 -0.516456 0.000000 0.500000 0.500000
-0.289935 0.734973 -0.496856 0.300000 0.000000 0.600000
0.180212 0.177744 -0.486253 0.600000 0.000000 0.300000
-0.277619 -0.644153 0.340800 1.000000 0.000000 0.000000
-0.379968 -0.474165 -0.496856 0.300000 0.000000 0.600000
-0.414714 -0.677455 -0.198124 0.600000 0.000000 0.300000
-0.388918 -0.269884 0.521055 0.300000 0.000000 0.600000
-0.185752 -0.182899 0.521055 0.300000 0.000000 0.600000
-0.384993 -0.686092 0.356705 1.000000 0.000000 0.000000
0.422942 0.315249 -0.040225 0.300000 0.600000 0.000000
-0.430618 0.148005 -0.119397 0.000000 0.500000 0.500000
-0.072370 -0.470442 0.457878 0.600000 0.300000 0.000000
0.170946 0.286700 0.517733 0.300000 0.000000 0.600000
-0.300941 0.132671 0.510694 0.300000 0.000000 0.600000
-0.414714 -0.667292 0.131123 0.600000 0.000000 0.300000
0.371723 -0.438027 -0.496856 0.600000 0.000000 0.300000
0.358775 -0.534176 0.340800 1.000000 0.000000 0.000000
-0.006510 0.200839 -0.496856 0.600000 0.000000 0.300000
0.422942 0.200278 0.268419 0.300000 0.600000 0.000000
0.135037 -0.179315 0.521055 0.300000 0.000000 0.600000
-0.355411 0.238053 0.544255 0.600000 0.300000 0.000000
-0.097203 0.591228 0.489245 0.600000 0.000000 0.300000
-0.094443 0.090605 -0.486253 0.600000 0.000000 0.300000
0.438847 -0.243408 0.160411 0.300000 0.600000 0.000000
0.438847 -0.220555 -0.227053 0.300000 0.600000 0.000000
-0.205395 -0.502252 0.008707 0.300000 0.000000 0.600000
-0.081964 0.642944 -0.528665 0.300000 0.000000 0.600000
0.005589 0.108649 -0.496856 0.600000 0.000000 0.300000
-0.430618 -0.328876 0.196433 0.000000 0.500000 0.500000
-0.414714 0.414718 0.230790 0.000000 0.500000 0.500000
0.422942 -0.026498 0.218431 0.300000 0.600000 0.000000
-0.430618 0.433017 -0.384075 0.000000 0.500000 0.500000
-0.430618 -0.521522 -0.031110 0.000000 0.500000 0.500000
-0.139419 -0.269717 0.489245 0.300000 0.000000 0.600000
0.283731 -0.705017 0.340800 1.000000 0.000000 0.000000
-0.096616 -0.481045 -0.433274 0.300000 0.000000 0.600000
-0.306722 -0.283507 0.489245 0.300000 0.000000 0.600000
0.099475 -0.470442 0.471382 0.600000 0.300000 0.000000
0.438847 -0.307828 -0.036185 0.300000 0.600000 0.000000
-0.309367 0.259205 0.489245 0.300000 0.000000 0.600000
0.298925 -0.481045 -0.390699 0.300000 0.000000 0.600000
0.312905 -0.568153 -0.496856 0.000000 0.000000 1.000000
-0.430618 0.516828 0.204584 0.000000 0.500000 0.500000
0.405564 0.682831 0.515226 0.600000 0.000000 0.300000
-0.414714 -0.596312 0.054832 0.600000 0.000000 0.300000
-0.430618 -0.111101 0.381984 0.000000 0.500000 0.500000
-0.424300 0.559314 -0.528665 0.000000 0.500000 0.500000
-0.003050 0.305768 0.489245 0.300000 0.000000 0.600000
-0.414714 -0.159113 -0.308955 0.000000 0.500000 0.500000
0.422942 -0.515138 0.389197 0.300000 0.600000 0.000000
-0.430618 -0.445585 0.141399 0.000000 0.500000 0.500000
0.431975 -0.724920 -0.469553 0.800000 0.200000 0.500000
-0.050266 -0.474518 0.521055 0.300000 0.000000 0.600000
-0.194301 -0.530817 -0.496856 0.000000 0.000000 1.000000
0.422942 0.551565 -0.115140 0.300000 0.600000 0.000000
0.438847 -0.303309 -0.344963 0.300000 0.600000 0.000000
-0.254060 -0.032236 -0.486253 0.600000 0.000000 0.300000
-0.379752 0.488134 0.457435 0.600000 0.000000 0.300000
0.411642 0.363313 0.510591 0.300000 0.000000 0.600000
0.247907 0.690449 0.457435 0.800000 0.200000 0.500000
-0.107197 -0.125049 -0.486253 0.600000 0.000000 0.300000
0.253745 -0.481045 0.383225 0.300000 0.000000 0.600000
-0.094086 -0.481045 0.405698 0.300000 0.000000 0.600000
-0.414714 0.582926 -0.267958 0.000000 0.500000 0.500000
-0.430618 0.674119 0.263510 0.000000 0.500000 0.500000
-0.381399 -0.203103 0.521055 0.300000 0.000000 0.600000
0.201554 -0.502252 -0.155152 0.300000 0.000000 0.600000
0.019322 -0.502252 0.383529 0.300000 0.000000 0.600000
0.438847 -0.392314 -0.348018 0.300000 0.600000 0.000000
0.256637 -0.502252 0.093950 0.300000 0.000000 0.600000
-0.309216 -0.131615 -0.486253 0.600000 0.000000 0.300000
0.068154 0.441656 0.509128 0.600000 0.000000 0.300000
-0.430618 -0.669349 -0.003482 0.600000 0.000000 0.300000
-0.245725 -0.502252 0.282022 0.300000 0.000000 0.600000
-0.146407 -0.502252 0.216530 0.300000 0.000000 0.600000
-0.414714 0.658828 -0.220772 0.000000 0.500000 0.500000
-0.327261 -0.481045 0.198649 0.300000 0.000000 0.600000
-0.430618 -0.444706 0.376715 0.000000 0.500000 0.500000
0.225101 -0.481045 -0.374886 0.300000 0.000000 0.600000
-0.414714 0.682537 -0.117248 0.000000 0.500000 0.500000
-0.403314 0.200631 0.505887 0.300000 0.000000 0.600000
-0.206106 -0.481045 -0.094885 0.300000 0.000000 0.600000
0.084120 -0.213784 -0.486253 0.600000 0.000000 0.300000
-0.389371 0.706517 -0.408403 0.500000 0.000000 0.500000
0.338697 0.674280 -0.528665 0.300000 0.000000 0.600000
-0.430618 -0.232355 0.088963 0.000000 0.500000 0.500000
0.438847 0.547719 0.339885 0.300000 0.600000 0.000000
-0.312745 -0.481045 -0.465614 0.300000 0.000000 0.600000
0.312320 0.345928 0.489245 0.300000 0.000000 0.600000
0.438847 0.414612 -0.415498 0.300000 0.600000 0.000000
0.422942 -0.548599 0.047506 0.800000 0.200000 0.500000
0.256578 -0.414247 0.489245 0.300000 0.000000 0.600000
0.127550 -0.502252 -0.293385 0.300000 0.000000 0.600000
0.245089 -0.493169 -0.486253 0.300000 0.000000 0.600000
-0.430618 0.507486 -0.213691 0.000000 0.500000 0.500000
0.347902 0.254771 -0.486253 0.600000 0.000000 0.300000
-0.169858 0.615893 -0.528665 0.300000 0.000000 0.600000
0.094150 -0.481045 -0.106108 0.300000 0.000000 0.600000
0.438847 0.489649 0.279780 0.300000 0.600000 0.000000
0.422942 -0.381562 -0.057553 0.300000 0.600000 0.000000
-0.430618 0.515839 -0.402914 0.000000 0.500000 0.500000
0.438847 -0.058824 -0.127200 0.300000 0.600000 0.000000
-0.128276 -0.103562 0.489245 0.300000 0.000000 0.600000
0.179507 0.619351 -0.486253 0.600000 0.000000 0.300000
0.422942 -0.627401 -0.228337 0.800000 0.200000 0.500000
-0.304730 0.192921 0.489245 0.300000 0.000000 0.600000
-0.441222 0.726875 0.483395 0.600000 0.000000 0.300000
-0.268724 -0.502252 -0.173856 0.300000 0.000000 0.600000
-0.150651 0.438946 -0.486253 0.600000 0.000000 0.300000
-0.113382 0.259161 0.489245 0.300000 0.000000 0.600000
0.099633 -0.263601 0.521055 0.300000 0.000000 0.600000
-0.063173 -0.332483 -0.486253 0.600000 0.000000 0.300000
-0.194700 0.719001 -0.496856 0.300000 0.000000 0.600000
0.438847 -0.194942 -0.106198 0.300000 0.600000 0.000000
-0.414714 0.220123 0.141906 0.000000 0.500000 0.500000
0.101344 -0.597813 -0.528665 0.000000 0.000000 1.000000
0.422942 0.240276 -0.354770 0.300000 0.600000 0.000000
-0.430618 0.145692 -0.008931 0.000000 0.500000 0.500000
-0.361641 -0.357674 -0.486253 0.600000 0.000000 0.300000
0.247590 -0.076068 0.521055 0.300000 0.000000 0.600000
-0.414714 0.376966 0.442461 0.000000 0.500000 0.500000
0.106358 -0.098071 -0.496856 0.600000 0.000000 0.300000
0.000143 -0.607357 -0.496856 0.000000 0.000000 1.000000
-0.383319 -0.477136 0.521055 0.300000 0.000000 0.600000
-0.430618 0.230737 -0.022401 0.000000 0.500000 0.500000
0.422942 0.479538 0.156575 0.300000 0.600000 0.000000
-0.414714 -0.370008 0.386055 0.000000 0.500000 0.500000
0.103665 0.391521 0.489245 0.300000 0.000000 0.600000
0.422942 0.142124 0.219015 0.300000 0.600000 0.000000
-0.387417 -0.481045 -0.193941 0.300000 0.000000 0.600000
-0.414714 0.315526 -0.353020 0.000000 0.500000 0.500000
0.436258 -0.114216 -0.528665 0.300000 0.600000 0.000000
0.256261 -0.562448 0.356705 1.000000 0.000000 0.000000
0.322536 0.041593 -0.486253 0.600000 0.000000 0.300000
0.356908 -0.265880 0.521055 0.300000 0.000000 0.600000
-0.430618 0.421525 -0.176500 0.000000 0.500000 0.500000
0.005038 0.691641 -0.528665 0.300000 0.000000 0.600000
0.438847 -0.427887 0.004788 0.300000 0.600000 0.000000
0.438847 -0.149739 0.253123 0.300000 0.600000 0.000000
0.449094 -0.147767 0.457435 0.300000 0.000000 0.600000
0.422942 0.365559 0.127456 0.300000 0.600000 0.000000
0.084732 -0.418120 -0.486253 0.600000 0.000000 0.300000
-0.438347 -0.302532 0.489245 0.600000 0.000000 0.300000
0.423037 -0.724920 -0.337014 0.800000 0.200000 0.500000
0.183517 -0.502252 0.060179 0.300000 0.000000 0.600000
0.434975 -0.724920 0.174642 0.800000 0.200000 0.500000
-0.225773 -0.638655 -0.496856 0.000000 0.000000 1.000000
-0.414714 -0.012754 -0.227565 0.000000 0.500000 0.500000
0.438847 -0.074365 0.051943 0.300000 0.600000 0.000000
0.422942 -0.343619 -0.147671 0.300000 0.600000 0.000000
0.422942 -0.540525 -0.142537 0.800000 0.200000 0.500000
0.178779 0.620226 0.521055 0.600000 0.000000 0.300000
0.438847 0.084606 0.122691 0.300000 0.600000 0.000000
-0.430618 0.003578 0.338591 0.000000 0.500000 0.500000
-0.143369 -0.678057 0.340800 1.000000 0.000000 0.000000
0.423364 0.738327 -0.211947 0.300000 0.600000 0.000000
0.438847 0.598661 -0.086168 0.300000 0.600000 0.000000
0.060915 -0.467712 -0.496856 0.600000 0.000000 0.300000
0.315730 0.399023 0.458934 0.600000 0.000000 0.300000
0.424423 0.679084 -0.528665 0.300000 0.600000 0.000000
-0.232565 0.565922 0.521055 0.600000 0.000000 0.300000
-0.414714 0.595725 0.414606 0.000000 0.500000 0.500000
-0.430618 0.095566 0.295972 0.000000 0.500000 0.500000
-0.322744 0.677236 0.457435 0.800000 0.200000 0.500000
0.422942 0.322886 0.030838 0.300000 0.600000 0.000000
-0.161434 0.517291 0.521055 0.600000 0.000000 0.300000
0.329569 -0.502252 -0.325012 0.300000 0.000000 0.600000
0.427468 -0.568054 -0.528665 0.800000 0.200000 0.500000
0.438847 0.080704 -0.216617 0.300000 0.600000 0.000000
-0.414714 0.691031 0.144630 0.000000 0.500000 0.500000
-0.375416 -0.609355 -0.496856 0.000000 0.000000 1.000000
-0.131025 -0.373702 -0.486253 0.600000 0.000000 0.300000
-0.140252 -0.267042 -0.486253 0.600000 0.000000 0.300000
-0.039387 -0.481045 0.241630 0.300000 0.000000 0.600000
-0.025671 0.079195 0.489245 0.300000 0.000000 0.600000
0.438847 0.605353 0.354393 0.300000 0.600000 0.000000
0.203842 0.471052 0.521055 0.600000 0.000000 0.300000
-0.430618 0.509307 -0.460845 0.000000 0.500000 0.500000
-0.215571 -0.481045 -0.203727 0.300000 0.000000 0.600000
0.121392 0.556650 0.521055 0.600000 0.000000 0.300000
-0.414714 0.686940 -0.031628 0.000000 0.500000 0.500000
0.447281 0.598509 0.489245 0.300000 0.000000 0.600000
0.422942 -0.096847 -0.383050 0.300000 0.600000 0.000000
-0.291651 -0.182785 0.489245 0.300000 0.000000 0.600000
-0.414714 -0.167239 -0.421369 0.000000 0.500000 0.500000
0.422942 0.480481 -0.107334 0.300000 0.600000 0.000000
0.438847 -0.517131 -0.053468 0.300000 0.600000 0.000000
-0.430618 -0.501123 0.231617 0.000000 0.500000 0.500000
0.312036 -0.502252 0.351640 1.000000 0.000000 0.000000
-0.160246 0.236571 -0.486253 0.600000 0.000000 0.300000
-0.177648 0.351166 -0.486253 0.600000 0.000000 0.300000
0.192131 -0.470442 0.477169 0.600000 0.300000 0.000000
0.032893 -0.481045 -0.186087 0.300000 0.000000 0.600000
-0.316851 -0.481045 -0.106821 0.300000 0.000000 0.600000
-0.414714 -0.258517 -0.114291 0.000000 0.500000 0.500000
-0.056350 -0.019506 0.489245 0.300000 0.000000 0.600000
-0.241166 -0.436657 0.521055 0.300000 0.000000 0.600000
0.107133 0.319706 0.489245 0.300000 0.000000 0.600000
0.183068 0.692282 0.457435 0.800000 0.200000 0.500000
0.061601 -0.481045 -0.038065 0.300000 0.000000 0.600000
-0.407817 -0.043753 0.489245 0.600000 0.000000 0.300000
0.351085 -0.158090 0.489245 0.300000 0.000000 0.600000
-0.024512 -0.247192 0.521055 0.300000 0.000000 0.600000
-0.414714 0.339302 0.242334 0.000000 0.500000 0.500000
0.422942 0.684471 0.293292 0.300000 0.600000 0.000000
-0.430618 -0.718700 -0.469415 0.600000 0.000000 0.300000
-0.430618 0.514146 -0.136108 0.000000 0.500000 0.500000
0.146689 -0.476363 -0.528665 0.000000 0.000000 1.000000
0.438847 0.083584 0.234139 0.300000 0.600000 0.000000
0.438847 -0.469330 -0.177368 0.300000 0.600000 0.000000
0.018603 -0.502252 -0.424552 0.300000 0.000000 0.600000
-0.052918 0.491805 -0.496856 0.600000 0.000000 0.300000
0.080507 -0.699317 -0.528665 0.000000 0.000000 1.000000
0.449450 0.089578 0.477031 0.300000 0.000000 0.600000
0.211502 -0.502252 -0.326006 0.300000 0.000000 0.600000
0.438847 0.277404 -0.450380 0.300000 0.600000 0.000000
0.041450 -0.670678 -0.496856 0.000000 0.000000 1.000000
-0.430618 0.208489 -0.507552 0.000000 0.500000 0.500000
0.128237 -0.074670 0.489245 0.300000 0.000000 0.600000
-0.389765 -0.528788 0.340800 1.000000 0.000000 0.000000
-0.168966 -0.481045 -0.276630 0.300000 0.000000 0.600000
-0.414714 -0.390183 0.095065 0.000000 0.500000 0.500000
-0.168900 -0.481045 0.099000 0.300000 0.000000 0.600000
-0.070848 -0.502252 -0.309772 0.300000 0.000000 0.600000
-0.004021 0.405392 0.457435 0.600000 0.000000 0.300000
0.347998 0.183760 0.521055 0.300000 0.000000 0.600000
0.053685 -0.085760 0.489245 0.300000 0.000000 0.600000
-0.414714 -0.284026 0.316066 0.000000 0.500000 0.500000
0.378383 -0.656930 0.340800 1.000000 0.000000 0.000000
0.276178 -0.159399 -0.486253 0.600000 0.000000 0.300000
-0.414714 -0.665326 -0.524907 0.000000 0.000000 1.000000
0.422942 -0.324087 -0.255187 0.300000 0.600000 0.000000
-0.287205 0.363593 0.521055 0.300000 0.000000 0.600000
0.312288 0.629068 0.489245 0.600000 0.000000 0.300000
0.149975 -0.306585 -0.486253 0.600000 0.000000 0.300000
0.422942 0.350633 -0.267767 0.300000 0.600000 0.000000
-0.430618 0.148013 -0.192199 0.000000 0.500000 0.500000
0.438847 0.122735 -0.127239 0.300000 0.600000 0.000000
-0.430618 0.256073 0.291725 0.000000 0.500000 0.500000
-0.414714 0.621435 -0.442946 0.000000 0.500000 0.500000
-0.155921 0.345804 0.489245 0.300000 0.000000 0.600000
-0.385302 -0.502252 -0.000734 0.300000 0.000000 0.600000
0.004783 0.502218 -0.496856 0.600000 0.000000 0.300000
0.422942 -0.551899 0.275733 0.800000 0.200000 0.500000
0.422942 -0.259375 -0.473400 0.300000 0.600000 0.000000
0.438847 0.711273 -0.294718 0.300000 0.600000 0.000000
-0.089350 -0.358627 0.489245 0.300000 0.000000 0.600000
-0.184628 0.631363 0.521055 0.600000 0.000000 0.300000
-0.376702 -0.001495 -0.486253 0.600000 0.000000 0.300000
0.257397 0.621706 -0.486253 0.600000 0.000000 0.300000
-0.048827 0.599208 -0.496856 0.600000 0.000000 0.300000
-0.156125 -0.502252 -0.125759 0.300000 0.000000 0.600000
0.151066 -0.481045 -0.247458 0.300000 0.000000 0.600000
-0.119301 0.440175 0.457435 0.600000 0.000000 0.300000
-0.252750 0.390260 -0.496856 0.600000 0.000000 0.300000
-0.414714 -0.164727 0.100722 0.000000 0.500000 0.500000
-0.109607 0.052385 0.489245 0.300000 0.000000 0.600000
-0.430618 0.088358 0.223488 0.000000 0.500000 0.500000
-0.430618 -0.555727 -0.497252 0.600000 0.000000 0.300000
-0.295723 -0.219587 -0.496856 0.600000 0.000000 0.300000
0.416845 0.372574 0.457435 0.300000 0.000000 0.600000
0.195283 0.685311 -0.496785 0.600000 0.000000 0.300000
0.423042 0.591317 -0.528665 0.300000 0.600000 0.000000
-0.405055 -0.123233 0.457435 0.600000 0.000000 0.300000
-0.032706 -0.244597 -0.496856 0.600000 0.000000 0.300000
-0.430618 0.679695 -0.452535 0.000000 0.500000 0.500000
0.112401 -0.551862 -0.496856 0.000000 0.000000 1.000000
0.245585 -0.485669 0.496539 0.300000 0.000000 0.600000
0.384474 -0.721118 0.356705 1.000000 0.000000 0.000000
-0.264229 0.062031 0.489245 0.300000 0.000000 0.600000
-0.430618 -0.511956 -0.126501 0.000000 0.500000 0.500000
-0.430618 0.678240 0.049137 0.000000 0.500000 0.500000
0.438847 -0.613500 -0.478311 0.800000 0.200000 0.500000
-0.414714 0.496899 0.157756 0.000000 0.500000 0.500000
-0.196532 -0.570085 0.340800 1.000000 0.000000 0.000000
-0.414714 -0.435081 0.259727 0.000000 0.500000 0.500000
-0.255263 -0.577630 -0.496856 0.000000 0.000000 1.000000
-0.219794 0.462643 0.462857 0.600000 0.000000 0.300000
0.438847 -0.381421 -0.255189 0.300000 0.600000 0.000000
0.438847 0.168003 -0.494974 0.300000 0.600000 0.000000
-0.021800 -0.369194 -0.496856 0.600000 0.000000 0.300000
0.089062 -0.502252 0.148372 0.300000 0.000000 0.600000
0.085903 0.105440 0.489245 0.300000 0.000000 0.600000
0.438847 0.417250 0.035452 0.300000 0.600000 0.000000
0.089073 -0.205671 0.521055 0.300000 0.000000 0.600000
0.181770 -0.631916 0.356705 1.000000 0.000000 0.000000
-0.430618 -0.671916 -0.060730 0.600000 0.000000 0.300000
-0.352166 -0.481045 -0.388859 0.300000 0.000000 0.600000
0.422942 -0.283412 0.294779 0.300000 0.600000 0.000000
0.438847 0.514596 -0.010652 0.300000 0.600000 0.000000
-0.430618 -0.014169 -0.385415 0.000000 0.500000 0.500000
-0.414714 0.447495 -0.520374 0.000000 0.500000 0.500000
-0.005626 -0.502252 0.100452 0.300000 0.000000 0.600000
0.111663 -0.649633 0.356705 1.000000 0.000000 0.000000
0.413839 0.706517 -0.477281 0.500000 0.500000 0.000000
-0.325412 0.564985 0.521055 0.600000 0.000000 0.300000
-0.228183 -0.092786 0.521055 0.300000 0.000000 0.600000
0.127315 0.692801 0.457435 0.800000 0.200000 0.500000
-0.160717 0.135890 -0.496856 0.600000 0.000000 0.300000
0.438847 0.056592 0.059058 0.300000 0.600000 0.000000
0.018148 0.658876 -0.486253 0.600000 0.000000 0.300000
0.422942 -0.266949 -0.201685 0.300000 0.600000 0.000000
-0.020001 -0.437601 -0.496856 0.600000 0.000000 0.300000
-0.223948 -0.644646 0.340800 1.000000 0.000000 0.000000
0.245013 -0.291968 -0.496856 0.600000 0.000000 0.300000
-0.430618 -0.228014 0.016793 0.000000 0.500000 0.500000
-0.430618 0.593313 0.001742 0.000000 0.500000 0.500000
-0.105540 -0.598747 0.340800 1.000000 0.000000 0.000000
-0.430618 -0.611582 -0.255808 0.600000 0.000000 0.300000
0.249757 0.457971 0.457435 0.600000 0.000000 0.300000
-0.414714 0.597798 -0.394265 0.000000 0.500000 0.500000
0.422942 -0.144384 -0.001525 0.300000 0.600000 0.000000
0.422942 0.368457 -0.147991 0.300000 0.600000 0.000000
-0.022093 -0.594498 0.340800 1.000000 0.000000 0.000000
0.422942 -0.449639 0.086732 0.300000 0.600000 0.000000
-0.386806 -0.502252 0.284261 0.300000 0.000000 0.600000
0.438847 -0.569003 0.227955 0.800000 0.200000 0.500000
0.164708 -0.502252 0.245254 0.300000 0.000000 0.600000
-0.430618 -0.345524 -0.355807 0.000000 0.500000 0.500000
-0.414714 -0.547375 0.143773 0.600000 0.000000 0.300000
0.186797 0.011181 0.521055 0.300000 0.000000 0.600000
0.433320 -0.183224 -0.528665 0.300000 0.600000 0.000000
-0.380699 -0.433178 0.457435 0.600000 0.000000 0.300000
-0.430618 -0.339963 -0.223093 0.000000 0.500000 0.500000
-0.430618 0.522800 -0.319815 0.000000 0.500000 0.500000
0.385831 0.326456 0.476105 0.300000 0.000000 0.600000
0.388129 0.022838 -0.496856 0.600000 0.000000 0.300000
0.438847 -0.504298 0.113752 0.300000 0.600000 0.000000
0.422942 0.400771 -0.035352 0.300000 0.600000 0.000000
0.438847 0.243253 -0.244906 0.300000 0.600000 0.000000
-0.208146 -0.065365 -0.496856 0.600000 0.000000 0.300000
-0.279252 -0.352336 0.513903 0.300000 0.000000 0.600000
0.180731 -0.234068 0.521055 0.300000 0.000000 0.600000
-0.379561 0.596984 0.457435 0.600000 0.000000 0.300000
0.100248 -0.481045 0.397490 0.300000 0.000000 0.600000
-0.414714 -0.005182 0.256014 0.000000 0.500000 0.500000
-0.430618 -0.612722 -0.477451 0.600000 0.000000 0.300000
-0.414714 0.331737 -0.107632 0.000000 0.500000 0.500000
-0.430618 0.264432 0.375900 0.000000 0.500000 0.500000
-0.152398 0.574262 0.521055 0.600000 0.000000 0.300000
-0.430618 -0.203030 -0.111284 0.000000 0.500000 0.500000
-0.226089 0.225746 0.489245 0.300000 0.000000 0.600000
0.385831 0.450605 0.460648 0.300000 0.000000 0.600000
0.438847 -0.047949 -0.400423 0.300000 0.600000 0.000000
-0.414714 -0.472396 -0.337446 0.000000 0.500000 0.500000
-0.130218 -0.470442 0.467963 0.600000 0.300000 0.000000
0.438847 -0.064105 0.433574 0.300000 0.600000 0.000000
0.422942 -0.119496 0.330712 0.300000 0.600000 0.000000
-0.022213 0.210794 0.521055 0.300000 0.000000 0.600000
0.436923 0.738327 -0.027345 0.300000 0.600000 0.000000
0.422942 0.469895 -0.187727 0.300000 0.600000 0.000000
0.438847 -0.097874 -0.189872 0.300000 0.600000 0.000000
-0.265743 0.204238 -0.496856 0.600000 0.000000 0.300000
0.299116 0.343306 -0.486253 0.600000 0.000000 0.300000
0.426662 0.274612 -0.528665 0.300000 0.600000 0.000000
0.176568 -0.123846 -0.496856 0.600000 0.000000 0.300000
-0.430618 0.383316 -0.253409 0.000000 0.500000 0.500000
0.007664 -0.470214 0.521055 0.300000 0.000000 0.600000
0.422942 -0.610707 0.098244 0.800000 0.200000 0.500000
-0.430618 -0.568618 -0.207300 0.600000 0.000000 0.300000
0.034987 -0.369908 -0.486253 0.600000 0.000000 0.300000
-0.430618 -0.499000 0.109589 0.000000 0.500000 0.500000
-0.330113 -0.370857 0.489245 0.300000 0.000000 0.600000
-0.159701 -0.050180 -0.486253 0.600000 0.000000 0.300000
0.438847 -0.651823 -0.403252 0.800000 0.200000 0.500000
-0.430618 0.604292 -0.147129 0.000000 0.500000 0.500000
0.190813 -0.502252 -0.078365 0.300000 0.000000 0.600000
0.043830 0.564259 0.521055 0.600000 0.000000 0.300000
0.438847 0.316095 0.150199 0.300000 0.600000 0.000000
-0.003164 -0.681577 -0.528665 0.000000 0.000000 1.000000
0.050838 -0.481045 0.204228 0.300000 0.000000 0.600000
-0.414714 0.368718 0.145592 0.000000 0.500000 0.500000
-0.388219 0.290498 0.521055 0.300000 0.000000 0.600000
0.438847 0.542739 -0.270843 0.300000 0.600000 0.000000
0.438847 0.574903 0.174729 0.300000 0.600000 0.000000
-0.051495 -0.155529 0.521055 0.300000 0.000000 0.600000
-0.190624 -0.233952 0.521055 0.300000 0.000000 0.600000
0.227926 0.605736 0.521055 0.600000 0.000000 0.300000
0.422942 -0.600154 -0.122554 0.800000 0.200000 0.500000
-0.124647 0.110440 0.489245 0.300000 0.000000 0.600000
0.422942 -0.563556 -0.364202 0.800000 0.200000 0.500000
-0.398073 0.399088 0.496338 0.300000 0.000000 0.600000
0.091180 -0.356984 0.518959 0.300000 0.000000 0.600000
-0.255705 -0.481045 -0.373863 0.300000 0.000000 0.600000
-0.375545 0.263434 -0.486253 0.600000 0.000000 0.300000
-0.306247 -0.502252 0.366750 0.300000 0.000000 0.600000
-0.430618 0.162667 0.401435 0.000000 0.500000 0.500000
0.120125 0.280707 0.521055 0.300000 0.000000 0.600000
0.034966 -0.014067 0.521055 0.300000 0.000000 0.600000
-0.023699 -0.481045 0.190619 0.300000 0.000000 0.600000
-0.306705 -0.544919 -0.496856 0.000000 0.000000 1.000000
-0.430618 -0.167279 0.168459 0.000000 0.500000 0.500000
0.392098 -0.359846 -0.496856 0.600000 0.000000 0.300000
-0.186538 0.409111 0.519770 0.300000 0.000000 0.600000
0.205131 0.510907 0.489245 0.600000 0.000000 0.300000
-0.151927 -0.475744 -0.517115 0.000000 0.000000 1.000000
0.132717 0.600469 0.489245 0.600000 0.000000 0.300000
-0.414714 -0.385741 -0.091008 0.000000 0.500000 0.500000
0.176603 0.675332 0.521055 0.600000 0.000000 0.300000
-0.199892 -0.406788 0.521055 0.300000 0.000000 0.600000
0.351405 0.408353 0.520594 0.300000 0.000000 0.600000
-0.305688 -0.684122 -0.528665 0.000000 0.000000 1.000000
0.438847 0.626258 -0.221678 0.300000 0.600000 0.000000
-0.430618 0.407656 0.354986 0.000000 0.500000 0.500000
0.293801 -0.236953 0.509780 0.300000 0.000000 0.600000
0.385831 0.098548 0.470469 0.300000 0.000000 0.600000
-0.430618 -0.199946 0.385150 0.000000 0.500000 0.500000
0.130786 -0.724920 0.354561 1.000000 0.000000 0.000000
-0.430618 0.606239 -0.315710 0.000000 0.500000 0.500000
0.438847 0.522077 0.239424 0.300000 0.600000 0.000000
-0.430618 0.317761 -0.043998 0.000000 0.500000 0.500000
0.163360 0.094276 -0.486253 0.600000 0.000000 0.300000
-0.300214 0.454211 0.521055 0.600000 0.000000 0.300000
0.336137 -0.034715 0.521055 0.300000 0.000000 0.600000
-0.172419 -0.502252 -0.036244 0.300000 0.000000 0.600000
0.380014 -0.502252 0.264491 0.300000 0.000000 0.600000
0.320776 -0.058381 -0.496856 0.600000 0.000000 0.300000
0.293041 0.537680 0.521055 0.600000 0.000000 0.300000
0.040308 -0.470442 0.476278 0.600000 0.300000 0.000000
-0.076017 -0.079234 -0.486253 0.600000 0.000000 0.300000
0.290275 0.216493 -0.496856 0.600000 0.000000 0.300000
-0.414714 0.514645 0.422500 0.000000 0.500000 0.500000
-0.011769 0.674707 0.481975 0.800000 0.200000 0.500000
-0.430618 -0.211685 0.438942 0.000000 0.500000 0.500000
-0.414714 0.285624 -0.295577 0.000000 0.500000 0.500000
0.338432 -0.485024 0.457435 0.300000 0.000000 0.600000
0.438847 -0.546773 -0.296254 0.800000 0.200000 0.500000
0.238769 0.056709 0.489245 0.300000 0.000000 0.600000
0.422942 0.572284 0.090241 0.300000 0.600000 0.000000
0.156912 0.145866 0.489245 0.300000 0.000000 0.600000
0.296933 0.030274 0.489245 0.300000 0.000000 0.600000
0.111328 0.263997 -0.496856 0.600000 0.000000 0.300000
-0.097661 0.684576 0.520063 0.600000 0.000000 0.300000
-0.256284 0.651095 -0.528665 0.300000 0.000000 0.600000
-0.387437 0.720174 -0.496856 0.300000 0.000000 0.600000
0.028675 -0.502252 -0.140485 0.300000 0.000000 0.600000
0.090154 0.202215 0.521055 0.300000 0.000000 0.600000
0.438847 -0.454365 0.426291 0.300000 0.600000 0.000000
0.011034 -0.080609 0.521055 0.300000 0.000000 0.600000
0.438847 0.392448 0.415609 0.300000 0.600000 0.000000
-0.414714 -0.281388 0.379475 0.000000 0.500000 0.500000
-0.371314 0.481862 -0.496856 0.600000 0.000000 0.300000
-0.414714 -0.152901 0.282138 0.000000 0.500000 0.500000
0.022077 0.419871 0.509554 0.300000 0.000000 0.600000
0.019241 -0.618406 0.356705 1.000000 0.000000 0.000000
-0.322890 -0.481926 0.517896 0.300000 0.000000 0.600000
-0.202119 0.632152 -0.486253 0.600000 0.000000 0.300000
0.413003 -0.513064 -0.496856 0.000000 0.000000 1.000000
0.438847 -0.681323 0.076966 0.800000 0.200000 0.500000
-0.185493 -0.494768 0.457435 0.300000 0.000000 0.600000
-0.334118 0.101668 0.489245 0.300000 0.000000 0.600000
0.393008 -0.639863 -0.496856 0.000000 0.000000 1.000000
-0.383446 0.706517 0.431945 1.000000 0.000000 0.000000
0.165965 -0.426912 0.489245 0.300000 0.000000 0.600000
0.438847 -0.076093 0.237962 0.300000 0.600000 0.000000
-0.430618 0.472435 -0.259977 0.000000 0.500000 0.500000
-0.231370 -0.720887 0.340800 1.000000 0.000000 0.000000
0.387291 0.655996 -0.486253 0.600000 0.000000 0.300000
-0.414714 -0.563278 -0.398932 0.600000 0.000000 0.300000
-0.430618 0.689970 -0.296500 0.000000 0.500000 0.500000
0.422942 -0.129831 -0.428280 0.300000 0.600000 0.000000
0.094521 -0.502252 0.300349 0.300000 0.000000 0.600000
0.020607 -0.096615 -0.496856 0.600000 0.000000 0.300000
-0.049344 -0.311598 0.521055 0.300000 0.000000 0.600000
-0.361884 0.375133 -0.496856 0.600000 0.000000 0.300000
0.335120 -0.481045 -0.052521 0.300000 0.000000 0.600000
0.386150 0.338244 -0.486253 0.600000 0.000000 0.300000
-0.330169 -0.502252 0.272650 0.300000 0.000000 0.600000
-0.430618 0.055359 0.138217 0.000000 0.500000 0.500000
0.422942 0.271584 0.332715 0.300000 0.600000 0.000000
0.263499 0.216185 0.521055 0.300000 0.000000 0.600000
-0.387533 -0.185890 -0.496856 0.600000 0.000000 0.300000
-0.267162 0.635266 0.521055 0.600000 0.000000 0.300000
-0.430618 0.063429 -0.204014 0.000000 0.500000 0.500000
-0.414714 0.292590 0.123314 0.000000 0.500000 0.500000
0.181006 -0.629420 -0.528665 0.000000 0.000000 1.000000
0.449450 -0.273408 0.474643 0.300000 0.000000 0.600000
-0.414714 0.351507 0.343677 0.000000 0.500000 0.500000
0.438847 0.293478 -0.085033 0.300000 0.600000 0.000000
-0.095637 0.140431 -0.486253 0.600000 0.000000 0.300000
-0.441222 0.679238 0.468827 0.600000 0.000000 0.300000
0.422942 0.129001 0.326059 0.300000 0.600000 0.000000
0.422942 -0.610583 0.008463 0.800000 0.200000 0.500000
-0.414714 -0.490757 0.427924 0.000000 0.500000 0.500000
0.045025 -0.481045 0.055923 0.300000 0.000000 0.600000
-0.414714 -0.232818 -0.368562 0.000000 0.500000 0.500000
0.441223 0.487619 0.489245 0.300000 0.000000 0.600000
-0.087262 -0.481045 0.148018 0.300000 0.000000 0.600000
-0.251944 -0.279734 0.521055 0.300000 0.000000 0.600000
0.033717 0.330832 -0.486253 0.600000 0.000000 0.300000
0.422942 -0.575307 -0.205478 0.800000 0.200000 0.500000
0.438847 -0.473502 -0.467650 0.300000 0.600000 0.000000
-0.414714 -0.114530 -0.079158 0.000000 0.500000 0.500000
0.182750 0.344617 0.489245 0.300000 0.000000 0.600000
0.097324 -0.480326 0.520042 0.300000 0.000000 0.600000
0.055479 0.119345 -0.486253 0.600000 0.000000 0.300000
0.119891 -0.502252 -0.360195 0.300000 0.000000 0.600000
0.422942 -0.206531 -0.392062 0.300000 0.600000 0.000000
-0.430618 0.315150 0.378432 0.000000 0.500000 0.500000
-0.430618 -0.013322 -0.479067 0.000000 0.500000 0.500000
-0.003869 -0.502252 -0.083890 0.300000 0.000000 0.600000
0.438847 0.462731 -0.279031 0.300000 0.600000 0.000000
-0.332261 0.289554 0.521055 0.300000 0.000000 0.600000
-0.430618 -0.089952 -0.122062 0.000000 0.500000 0.500000
0.268329 -0.724920 -0.505821 0.000000 0.000000 1.000000
0.422942 -0.232618 0.435990 0.300000 0.600000 0.000000
-0.238584 -0.206731 0.521055 0.300000 0.000000 0.600000
0.437279 -0.724920 -0.189942 0.800000 0.200000 0.500000
-0.414714 0.236344 0.426933 0.000000 0.500000 0.500000
0.131878 -0.206381 -0.496856 0.600000 0.000000 0.300000
-0.402096 0.059740 0.504325 0.300000 0.000000 0.600000
-0.414714 -0.702093 0.095997 0.600000 0.000000 0.300000
-0.057346 -0.507545 -0.496856 0.000000 0.000000 1.000000
-0.148433 -0.455089 0.521055 0.300000 0.000000 0.600000
-0.193760 0.709139 0.489245 0.800000 0.200000 0.500000
0.422942 0.616190 -0.388806 0.300000 0.600000 0.000000
-0.328077 -0.192621 0.521055 0.300000 0.000000 0.600000
0.077395 -0.421390 0.489245 0.300000 0.000000 0.600000
0.438847 0.278231 0.430966 0.300000 0.600000 0.000000
0.161727 -0.481045 0.189266 0.300000 0.000000 0.600000
-0.430618 -0.335475 0.129183 0.000000 0.500000 0.500000
