ply
format ascii 1.0
element vertex 1238
property float x
property float y
property float z
property uchar red
property uchar green
property uchar blue
end_header
-0.241905 -0.220810 0.032196 153 0 76
-0.045000 0.447866 -0.437857 204 51 127
0.178810 0.512637 -0.431572 153 0 76
-0.606086 0.129904 -0.282056 204 51 127
0.599858 -0.095507 -0.124585 204 51 127
-0.488739 -0.216953 -0.128294 153 0 76
0.060790 -0.141945 0.402994 0 127 127
0.419729 -0.080902 -0.128951 204 51 127
-0.615696 -0.187146 0.411558 153 0 76
-0.387946 -0.147859 0.403805 0 127 127
-0.596642 0.546311 -0.472584 204 51 127
0.367975 -0.121014 -0.024667 153 0 76
0.570222 -0.030501 -0.233631 204 51 127
-0.503283 -0.147804 0.405597 0 127 127
-0.058618 0.084332 -0.273986 153 0 76
-0.584812 -0.119850 -0.216397 127 0 127
0.243961 0.273126 -0.343449 153 0 76
-0.565494 0.312803 -0.390198 204 51 127
-0.485830 -0.099299 -0.121741 204 51 127
0.299657 -0.136655 0.275166 0 127 127
0.188062 -0.220810 0.278626 153 0 76
-0.308040 0.125769 -0.289232 153 0 76
0.248683 0.574459 -0.445861 204 51 127
0.332657 -0.140552 0.235379 0 127 127
-0.177988 -0.101266 -0.116181 127 0 127
0.081727 -0.106052 -0.227070 204 51 127
-0.369120 0.249454 -0.334739 153 0 76
0.222211 -0.110415 -0.117642 127 0 127
0.306258 0.542014 -0.450055 204 51 127
0.570496 0.488832 -0.452310 204 51 127
0.595729 -0.170796 0.053712 153 0 76
0.613497 -0.219690 0.406719 153 0 76
0.491545 -0.140832 0.241850 0 127 127
0.514718 -0.220810 0.133004 153 0 76
-0.269704 0.449963 -0.408512 153 0 76
-0.036713 0.085328 -0.274353 153 0 76
-0.420482 0.240151 -0.361513 204 51 127
-0.402888 -0.115669 -0.088274 153 0 76
0.160069 -0.058257 -0.192520 204 51 127
0.389673 -0.079790 -0.123048 127 0 127
0.198449 -0.130217 0.080467 0 127 127
-0.427887 -0.220809 -0.084777 153 0 76
-0.448940 -0.137184 0.421820 153 0 76
0.333387 0.001583 -0.276534 204 51 127
0.423623 -0.067917 -0.149902 204 51 127
0.122335 -0.220810 0.256606 153 0 76
-0.347895 0.228768 -0.327128 153 0 76
-0.215417 -0.196858 0.617716 153 0 76
-0.617708 -0.165316 0.182739 153 0 76
0.629781 -0.167771 0.403419 153 0 76
-0.275215 -0.085885 -0.125709 204 51 127
-0.014898 0.533208 -0.454475 204 51 127
0.161577 0.049645 -0.261224 153 0 76
-0.403881 0.282178 -0.375709 204 51 127
-0.203787 -0.220810 0.140683 153 0 76
0.033649 -0.220810 -0.064709 153 0 76
-0.163928 -0.140828 0.241738 0 127 127
0.156807 -0.220701 0.553147 153 0 76
0.618874 -0.057045 -0.187100 127 0 127
0.525865 -0.045335 -0.263842 204 51 127
-0.094930 -0.103885 -0.121676 204 51 127
-0.284860 -0.220810 -0.014048 153 0 76
-0.140695 -0.147099 0.386285 0 127 127
-0.398355 0.119997 -0.287108 153 0 76
0.601846 0.086478 -0.301938 204 51 127
-0.230772 0.012189 -0.247442 153 0 76
0.424218 -0.220810 -0.050994 153 0 76
0.578107 -0.055811 -0.182317 127 0 127
-0.627354 -0.054865 -0.256702 204 51 127
-0.573001 -0.125998 0.025518 0 127 127
0.031559 0.316276 -0.391423 204 51 127
0.062781 -0.220810 0.425442 153 0 76
0.137466 -0.094990 -0.117114 127 0 127
0.626762 -0.207158 0.532442 153 0 76
0.516867 -0.220810 0.384190 153 0 76
-0.517776 -0.220810 0.093837 153 0 76
0.015822 0.624407 -0.460541 0 0 255
-0.324825 -0.140020 0.223141 0 127 127
-0.395247 -0.218674 -0.119852 153 0 76
-0.004409 -0.220810 -0.061128 153 0 76
0.269275 -0.220810 0.364414 153 0 76
0.191626 -0.121360 -0.022749 153 0 76
-0.185753 -0.118953 -0.034248 153 0 76
0.038897 -0.187418 0.625522 153 0 76
-0.485504 -0.131199 -0.176665 204 51 127
-0.619602 0.386509 -0.396220 204 51 127
0.565696 -0.143016 0.558000 153 0 76
0.326510 0.305756 -0.355454 153 0 76
-0.183455 -0.220810 0.047161 153 0 76
0.197313 -0.171131 0.636013 153 0 76
0.034577 0.260121 -0.338664 153 0 76
-0.248390 0.645003 -0.480453 204 51 127
0.357221 0.219175 -0.323599 153 0 76
0.381788 0.201815 -0.317212 153 0 76
0.221871 -0.218900 0.575646 153 0 76
0.552819 -0.138405 0.343135 0 127 127
-0.413167 0.598053 -0.490826 204 51 127
0.170203 -0.132562 0.051213 0 127 127
0.529631 0.486508 -0.451501 204 51 127
-0.542234 -0.220810 0.237055 153 0 76
-0.438044 -0.141923 0.345704 0 127 127
-0.627863 -0.215904 0.383873 153 0 76
0.629783 -0.169680 0.219255 153 0 76
-0.587483 0.313307 -0.351191 204 51 127
0.037315 -0.135593 0.250284 0 127 127
0.005073 -0.220699 0.553267 153 0 76
-0.345696 -0.133916 0.239664 0 127 127
-0.611659 -0.181580 0.253606 153 0 76
0.033574 0.221215 -0.357895 204 51 127
-0.122474 -0.105083 -0.134502 127 0 127
-0.363966 -0.013588 -0.237958 153 0 76
0.275703 0.484896 -0.421365 153 0 76
-0.585352 -0.220810 0.366866 153 0 76
-0.204600 -0.213706 0.593809 153 0 76
-0.018131 -0.220810 0.229951 153 0 76
0.378227 -0.220810 0.321345 153 0 76
0.106266 0.638980 -0.487816 204 51 127
-0.429628 0.477953 -0.448516 204 51 127
0.281167 -0.006776 -0.277447 204 51 127
0.193523 -0.114820 -0.202182 153 0 76
0.435314 -0.141826 0.333064 0 127 127
-0.035250 -0.128588 0.085664 0 127 127
0.271032 -0.139492 0.333165 0 127 127
-0.361267 0.078581 -0.302981 0 255 0
-0.064055 0.410631 -0.421903 204 51 127
-0.423580 -0.125763 0.020014 0 127 127
-0.140873 0.464262 -0.413774 153 0 76
0.379726 0.341265 -0.368519 153 0 76
0.068064 0.512320 -0.456740 204 51 127
0.562874 -0.137856 0.411703 153 0 76
-0.541561 -0.042311 -0.228946 204 51 127
0.260785 -0.137974 0.440357 153 0 76
0.355838 0.555741 -0.447431 153 0 76
0.425940 -0.141673 0.516826 153 0 76
-0.007833 0.506444 -0.429293 153 0 76
-0.234305 -0.135192 0.111827 0 127 127
-0.058519 0.504187 -0.428463 153 0 76
-0.446136 0.160950 -0.333828 204 51 127
0.120070 -0.141026 0.538048 76 0 153
-0.259663 -0.220810 0.211607 153 0 76
0.116005 -0.019330 -0.269156 204 51 127
-0.205340 -0.129181 0.130531 0 127 127
-0.509965 0.182766 -0.344322 204 51 127
0.628534 -0.201416 0.493159 153 0 76
0.220088 -0.077280 -0.132199 204 51 127
-0.542989 -0.010532 -0.272240 204 51 127
-0.325001 -0.134411 0.251060 0 127 127
-0.078894 0.259744 -0.371478 204 51 127
-0.617483 -0.139093 0.375373 0 127 127
-0.353991 -0.041512 -0.221703 204 51 127
-0.202230 0.550674 -0.474124 204 51 127
0.292893 -0.132367 0.151272 0 127 127
-0.011254 0.074241 -0.306040 204 51 127
-0.183096 -0.220810 0.307724 153 0 76
0.195158 -0.220810 -0.003197 153 0 76
-0.426745 0.496465 -0.454995 204 51 127
0.316050 -0.127753 0.051911 0 127 127
0.488993 0.155547 -0.300188 153 0 76
0.609179 -0.026607 -0.261208 204 51 127
-0.439747 -0.143164 0.295577 0 127 127
-0.009458 -0.139413 0.366357 0 127 127
0.187189 0.077404 -0.303261 204 51 127
-0.449691 -0.220810 0.137546 153 0 76
-0.474388 0.145058 -0.296329 153 0 76
-0.486925 0.313594 -0.386709 204 51 127
0.166925 0.487904 -0.422472 153 0 76
-0.551767 -0.220720 -0.098774 153 0 76
0.613116 0.261448 -0.348788 204 51 127
-0.187514 0.543798 -0.443037 153 0 76
0.185441 -0.220810 0.197446 153 0 76
-0.329692 -0.133637 -0.142617 127 0 127
-0.380818 -0.188862 -0.184247 153 0 76
-0.360005 -0.129335 -0.227279 153 0 76
0.156538 0.411580 -0.394390 153 0 76
-0.051429 0.104170 -0.281285 153 0 76
0.131866 -0.135386 0.116311 0 127 127
-0.396228 -0.126372 0.065781 0 127 127
-0.200718 0.377487 -0.381846 153 0 76
-0.630083 0.050622 -0.271653 204 51 127
0.369473 -0.220810 0.043755 153 0 76
0.264189 -0.129575 0.049995 0 127 127
0.421479 -0.088526 -0.241637 204 51 127
0.388839 -0.122463 -0.225286 153 0 76
-0.440400 -0.098057 -0.181224 127 0 127
-0.268706 0.073189 -0.301757 204 51 127
0.294709 0.256175 -0.337212 153 0 76
-0.142642 0.347272 -0.370730 153 0 76
0.277396 -0.126386 0.034601 0 127 127
-0.140464 -0.124131 -0.005049 0 127 127
0.406084 -0.058186 -0.259309 204 51 127
0.462142 0.447092 -0.437587 204 51 127
0.202476 -0.143465 0.568817 153 0 76
0.622859 -0.150215 0.065706 153 0 76
-0.507405 -0.199475 -0.169435 153 0 76
0.091165 -0.220460 -0.103294 153 0 76
-0.364332 -0.139013 0.357128 0 127 127
0.440135 0.016718 -0.281877 204 51 127
-0.582138 -0.135052 0.108607 0 127 127
0.035688 -0.140925 0.530491 76 0 153
-0.467639 -0.204223 -0.161190 153 0 76
0.555177 -0.023629 -0.267642 204 51 127
0.523828 -0.144397 0.590806 153 0 76
0.271366 -0.117422 -0.113150 153 0 76
0.013410 0.092621 -0.312521 204 51 127
-0.532039 -0.116485 -0.066566 153 0 76
0.484221 -0.220810 0.136715 153 0 76
0.533555 0.385645 -0.384848 153 0 76
-0.416276 -0.128522 0.084106 0 127 127
0.524367 -0.063583 -0.163509 204 51 127
-0.199268 -0.220810 0.461485 153 0 76
0.323137 0.340710 -0.400046 204 51 127
0.314503 0.308062 -0.388525 204 51 127
-0.280415 -0.162803 0.641832 153 0 76
0.363375 -0.113661 -0.219093 204 51 127
0.330721 -0.047506 -0.210663 204 51 127
0.458894 0.242032 -0.361375 204 51 127
0.168341 -0.220810 0.442213 153 0 76
-0.502534 -0.139700 -0.223411 153 0 76
-0.188297 0.315577 -0.359068 153 0 76
-0.520178 -0.215003 -0.135509 153 0 76
-0.597503 -0.135295 0.114206 0 127 127
0.334167 -0.064148 -0.149340 127 0 127
0.626252 -0.208343 0.303633 153 0 76
-0.348309 -0.143075 0.293546 0 127 127
0.304487 -0.096691 -0.159663 127 0 127
-0.234991 -0.099471 -0.188440 127 0 127
-0.570987 -0.220810 0.177491 153 0 76
0.242884 -0.139224 0.396235 0 127 127
0.107543 -0.137878 0.450339 76 0 153
0.332622 -0.132722 0.072117 0 127 127
0.205525 -0.144461 0.325495 0 127 127
0.122086 0.189007 -0.342877 204 51 127
-0.083932 -0.132442 0.141559 0 127 127
0.522018 -0.127189 0.033840 0 127 127
0.526657 -0.217389 0.583117 153 0 76
-0.187490 -0.149898 -0.217855 153 0 76
-0.113492 -0.134284 0.248135 0 127 127
-0.403106 0.351231 -0.372186 153 0 76
0.028397 -0.167013 -0.206029 153 0 76
0.463924 -0.130026 0.093546 0 127 127
0.167249 0.259307 -0.338364 153 0 76
0.086893 -0.073747 -0.249393 204 51 127
0.269990 0.375942 -0.408742 204 51 127
-0.189471 0.376588 -0.408793 204 51 127
0.327291 -0.140562 0.366652 0 127 127
0.129530 -0.137367 0.291833 0 127 127
-0.048438 -0.137863 0.173396 0 127 127
0.425927 -0.134661 0.256833 0 127 127
-0.407835 -0.220810 0.421308 153 0 76
-0.021703 -0.126625 -0.195092 204 51 127
0.503903 -0.139063 0.201052 0 127 127
0.454681 0.017679 -0.249463 153 0 76
-0.548648 0.059734 -0.300938 204 51 127
-0.194851 0.531320 -0.467293 204 51 127
-0.596950 -0.220810 0.267041 153 0 76
0.581590 -0.116219 -0.085499 153 0 76
0.119452 0.013671 -0.280801 204 51 127
0.450067 -0.146955 0.382960 0 127 127
0.313215 0.152428 -0.329866 204 51 127
0.110661 0.354355 -0.404904 204 51 127
0.489830 0.281258 -0.375206 204 51 127
-0.069787 0.631588 -0.466592 204 51 127
-0.539837 0.351414 -0.372253 153 0 76
0.195499 0.341809 -0.368720 153 0 76
0.320221 -0.116937 -0.214161 204 51 127
0.051907 0.449959 -0.434720 204 51 127
-0.079043 -0.220810 -0.034547 153 0 76
0.136487 -0.096281 -0.153052 127 0 127
-0.236242 -0.129064 -0.140929 204 51 127
0.416567 -0.114250 -0.125033 204 51 127
-0.554450 -0.126612 -0.128255 153 0 76
-0.569572 -0.146507 0.372646 0 127 127
-0.543586 0.143341 -0.295697 153 0 76
0.612578 -0.143756 0.575648 153 0 76
0.502726 0.232284 -0.328422 153 0 76
0.196342 -0.140470 0.270024 0 127 127
0.155289 -0.145400 0.584351 153 0 76
-0.385565 -0.140259 0.491635 153 0 76
0.375145 -0.137446 0.163791 0 127 127
0.130491 0.352684 -0.372721 153 0 76
0.296948 0.433983 -0.402633 153 0 76
-0.118156 -0.139858 0.506867 76 0 153
-0.498204 -0.220810 -0.003389 153 0 76
-0.399059 -0.220810 0.400240 153 0 76
0.466771 0.040299 -0.257785 153 0 76
0.466875 0.424484 -0.425727 204 51 127
-0.596537 -0.090750 -0.244759 127 0 127
-0.571738 -0.094321 -0.242422 127 0 127
0.538644 -0.141980 0.521654 153 0 76
0.002689 0.405372 -0.392106 153 0 76
-0.487032 0.541790 -0.450014 204 51 127
-0.263911 -0.220810 0.196757 153 0 76
-0.340950 0.366821 -0.409258 204 51 127
-0.236246 -0.118039 -0.120738 127 0 127
0.197033 -0.132365 0.050195 0 127 127
0.417421 -0.122522 -0.211924 127 0 127
-0.251815 -0.140482 0.390990 0 127 127
-0.296175 0.388567 -0.385923 153 0 76
-0.293177 -0.199662 -0.169115 153 0 76
-0.049774 -0.140705 0.238903 0 127 127
-0.013180 -0.220810 0.183762 153 0 76
0.029100 -0.058518 -0.181187 127 0 127
-0.487105 0.428810 -0.427266 204 51 127
-0.217013 -0.138826 0.352830 0 127 127
-0.294837 -0.143988 0.581227 153 0 76
-0.268504 -0.139917 0.220747 0 127 127
0.613409 0.219807 -0.333285 204 51 127
0.621571 -0.209295 -0.005269 153 0 76
-0.179279 -0.220810 0.389064 153 0 76
-0.526944 -0.065352 -0.157739 204 51 127
-0.142051 0.181930 -0.344026 204 51 127
-0.418366 -0.220810 0.278464 153 0 76
0.141142 0.154154 -0.330370 204 51 127
0.030484 -0.146213 0.365859 0 127 127
0.555298 -0.129415 -0.134309 153 0 76
0.083935 0.039845 -0.257618 153 0 76
-0.075930 -0.051347 -0.201563 127 0 127
0.544289 0.507067 -0.450674 204 51 127
-0.124765 -0.051022 -0.202491 127 0 127
0.117014 -0.131186 0.071339 0 127 127
-0.168607 -0.139297 0.206442 0 127 127
0.408592 0.302403 -0.382643 204 51 127
-0.172003 -0.123821 -0.006855 0 127 127
0.213136 -0.132811 -0.226221 153 0 76
0.596943 -0.136039 -0.168403 153 0 76
-0.216218 0.415958 -0.426593 204 51 127
-0.607719 0.342202 -0.393891 204 51 127
-0.091196 -0.097302 -0.235903 204 51 127
-0.117424 0.370517 -0.379282 153 0 76
0.283484 0.583882 -0.485856 204 51 127
-0.038848 0.284155 -0.380134 204 51 127
-0.622112 -0.117354 -0.105937 153 0 76
0.243513 -0.137995 0.176434 0 127 127
0.180827 -0.146897 0.381618 0 127 127
0.054731 -0.220810 0.513957 153 0 76
-0.000989 0.264965 -0.340446 153 0 76
-0.013282 0.041575 -0.294503 204 51 127
-0.405416 0.030207 -0.254072 153 0 76
-0.608796 0.566873 -0.443676 204 51 127
-0.154439 0.337751 -0.367226 153 0 76
0.084671 0.350068 -0.399442 204 51 127
0.445005 0.070213 -0.268791 153 0 76
-0.353052 -0.220810 0.407687 153 0 76
0.220028 -0.220810 0.284650 153 0 76
0.285472 0.136553 -0.293200 153 0 76
-0.051615 -0.110106 -0.197289 127 0 127
-0.612510 -0.087508 -0.129565 204 51 127
-0.527754 -0.138813 0.460008 153 0 76
0.620437 -0.213545 -0.095531 153 0 76
-0.139848 -0.220770 -0.097908 153 0 76
0.509259 -0.091558 -0.244230 127 0 127
0.568552 -0.220810 -0.057230 153 0 76
-0.351195 0.133264 -0.291990 153 0 76
-0.443646 0.559521 -0.442283 204 51 127
-0.620370 -0.097646 -0.215645 204 51 127
0.178352 -0.220810 0.064685 153 0 76
-0.183707 -0.085252 -0.243808 204 51 127
0.621311 0.614332 -0.485699 204 51 127
0.413980 0.121782 -0.287765 153 0 76
0.610382 0.126652 -0.315173 204 51 127
-0.557438 0.176489 -0.307893 153 0 76
0.358862 -0.140347 0.230669 0 127 127
-0.597342 0.326370 -0.370937 204 51 127
-0.324600 0.645121 -0.479329 204 51 127
0.209667 -0.087096 -0.242484 204 51 127
0.093856 0.518458 -0.433714 153 0 76
0.006088 -0.133615 0.232712 0 127 127
0.021743 -0.137922 0.461444 76 0 153
0.537159 0.249410 -0.367866 204 51 127
-0.569363 0.234534 -0.362595 204 51 127
0.549531 0.156342 -0.326598 204 51 127
-0.292156 -0.220810 0.336381 153 0 76
0.382743 0.159010 -0.335970 204 51 127
0.522689 0.241911 -0.331964 153 0 76
-0.458217 0.465185 -0.443962 204 51 127
0.385616 -0.220810 0.139916 153 0 76
-0.405006 -0.141174 0.515304 153 0 76
-0.288824 -0.220810 0.486736 153 0 76
-0.230409 0.378720 -0.382300 153 0 76
-0.595907 -0.140571 0.235828 0 127 127
0.319030 0.345109 -0.369933 153 0 76
-0.351006 -0.220810 0.429513 153 0 76
-0.512797 0.452684 -0.409514 153 0 76
0.345932 0.375274 -0.408357 204 51 127
0.158052 -0.134448 0.251920 0 127 127
-0.601969 -0.139915 0.377946 0 127 127
0.029365 0.033523 -0.255292 153 0 76
0.299108 0.209544 -0.320055 153 0 76
0.372024 0.143319 -0.326492 204 51 127
0.133270 -0.220667 -0.099706 153 0 76
-0.407381 0.560666 -0.442151 204 51 127
0.266701 0.636675 -0.489791 204 51 127
-0.421025 -0.078324 -0.251506 204 51 127
-0.258923 -0.169842 0.636694 153 0 76
0.263385 -0.138469 0.404318 0 127 127
-0.013133 0.297208 -0.352310 153 0 76
-0.101609 -0.125787 0.020573 0 127 127
0.304202 -0.220810 -0.083679 153 0 76
0.048951 0.090006 -0.276074 153 0 76
0.377376 -0.145499 0.349406 0 127 127
-0.170335 0.363968 -0.404394 204 51 127
0.595949 -0.152004 0.646740 153 0 76
-0.531629 -0.128272 0.109572 0 127 127
0.309762 0.326187 -0.362972 153 0 76
-0.053946 -0.220810 0.188477 153 0 76
0.065318 -0.138553 0.346523 0 127 127
0.225208 -0.057924 -0.259401 204 51 127
0.594854 -0.117266 -0.046941 153 0 76
0.199090 -0.220810 -0.081784 153 0 76
-0.093938 0.028621 -0.253488 153 0 76
0.244560 -0.146853 0.639561 153 0 76
0.110513 -0.062030 -0.257894 204 51 127
-0.165863 0.007857 -0.245849 153 0 76
-0.286454 0.621654 -0.464278 204 51 127
0.088515 -0.126365 -0.127066 127 0 127
-0.340156 -0.127789 -0.201861 127 0 127
0.435371 0.454709 -0.410259 153 0 76
-0.399484 0.044122 -0.259192 153 0 76
0.222648 -0.138419 0.244714 0 127 127
-0.029189 -0.145941 0.359594 0 127 127
-0.620366 0.075624 -0.286572 204 51 127
-0.208245 0.354337 -0.400945 204 51 127
0.524807 0.127734 -0.289955 153 0 76
0.287999 -0.039649 -0.224283 204 51 127
0.508485 -0.220810 0.344040 153 0 76
-0.631052 -0.206527 0.048821 153 0 76
-0.159759 -0.140313 0.360864 0 127 127
-0.033842 0.265171 -0.369495 204 51 127
-0.361234 0.317834 -0.391973 204 51 127
0.477005 -0.128721 -0.159760 127 0 127
-0.305984 0.106495 -0.316383 0 255 0
-0.503840 -0.144315 0.345870 0 127 127
0.211398 -0.116522 -0.062162 153 0 76
-0.027647 -0.220810 0.394644 153 0 76
-0.579732 -0.200113 0.614580 153 0 76
0.471486 -0.146529 0.373161 0 127 127
-0.621387 0.159672 -0.294468 204 51 127
0.473357 -0.141988 0.268477 0 127 127
-0.298026 0.181883 -0.340192 204 51 127
0.350596 -0.165162 0.645982 153 0 76
-0.458711 0.312841 -0.386428 204 51 127
-0.424143 -0.126316 -0.126842 127 0 127
-0.491300 -0.211238 -0.145922 153 0 76
-0.634436 -0.142985 0.191451 153 0 76
-0.617622 0.108287 -0.288870 204 51 127
0.014401 -0.140642 0.394679 0 127 127
-0.308881 -0.142574 0.281983 0 127 127
-0.388832 0.562023 -0.442231 204 51 127
-0.260823 -0.105927 -0.122482 204 51 127
0.001651 0.554649 -0.447030 153 0 76
0.076794 -0.055967 -0.181438 127 0 127
-0.159059 -0.052200 -0.258489 204 51 127
-0.028232 0.235934 -0.359223 204 51 127
-0.003205 0.638067 -0.468696 204 51 127
0.592713 -0.220809 0.469227 153 0 76
-0.086524 -0.220810 0.488620 153 0 76
0.170431 -0.099338 -0.138561 127 0 127
-0.501845 0.400489 -0.390309 153 0 76
-0.342837 0.225468 -0.359395 204 51 127
0.218059 0.299574 -0.353180 153 0 76
-0.277843 -0.135698 0.123497 0 127 127
-0.192405 0.077675 -0.307254 204 51 127
-0.397753 0.063650 -0.298429 204 51 127
-0.618313 0.048685 -0.296985 204 51 127
-0.485042 -0.142172 0.538361 153 0 76
-0.346405 -0.130568 0.162495 0 127 127
-0.404694 0.536448 -0.440333 153 0 76
0.318805 0.537139 -0.440587 153 0 76
0.456504 -0.220810 -0.082343 153 0 76
0.440177 0.589085 -0.487725 204 51 127
0.233690 -0.220810 -0.070749 153 0 76
0.284277 0.458901 -0.411801 153 0 76
0.012416 0.146012 -0.327680 204 51 127
-0.073212 -0.220810 0.321516 153 0 76
0.552037 -0.089284 -0.118234 127 0 127
0.385924 -0.070040 -0.250996 204 51 127
-0.537704 -0.138432 0.293351 0 127 127
-0.256103 -0.220810 -0.054246 153 0 76
0.344072 -0.139691 0.372754 0 127 127
0.107662 -0.140887 0.374168 0 127 127
0.028512 0.096519 -0.313896 204 51 127
0.528135 0.261902 -0.372238 204 51 127
-0.202350 -0.140330 0.493950 153 0 76
0.032279 -0.013006 -0.275247 204 51 127
-0.105195 -0.126827 0.076267 0 127 127
0.238614 -0.098222 -0.234559 204 51 127
-0.594133 -0.138477 0.441708 153 0 76
-0.027903 0.414016 -0.425908 204 51 127
-0.628157 -0.092134 -0.123891 127 0 127
-0.561852 0.358478 -0.402594 204 51 127
0.536860 -0.097320 -0.240131 127 0 127
-0.422914 -0.137203 0.269792 0 127 127
-0.084317 -0.220810 0.131184 153 0 76
-0.357286 -0.137267 0.266068 0 127 127
0.012302 0.255167 -0.336841 153 0 76
0.113197 -0.036480 -0.229536 153 0 76
0.004993 -0.220810 0.360478 153 0 76
0.053255 -0.220810 0.081151 153 0 76
0.416902 -0.134970 0.106711 0 127 127
0.346663 -0.220810 0.334059 153 0 76
0.059521 0.254484 -0.336590 153 0 76
-0.384356 -0.143276 0.563402 153 0 76
0.621535 -0.204775 -0.109262 153 0 76
-0.248300 -0.193198 0.621135 153 0 76
0.421807 -0.217701 -0.125255 153 0 76
-0.504340 -0.220810 0.467332 153 0 76
-0.445566 0.126306 -0.289430 153 0 76
-0.238016 0.536820 -0.469234 204 51 127
-0.031486 0.297724 -0.352499 153 0 76
0.165613 -0.126951 0.079135 0 127 127
0.491002 0.533329 -0.454545 204 51 127
0.388608 -0.135227 0.241707 0 127 127
-0.212444 -0.220810 0.479395 153 0 76
0.399069 -0.139385 0.298246 0 127 127
0.390257 0.377087 -0.381699 153 0 76
0.028641 -0.136740 0.304751 0 127 127
-0.383772 0.200724 -0.316810 153 0 76
-0.614829 -0.127313 0.088930 153 0 76
0.470248 0.294982 -0.351490 153 0 76
-0.066545 0.413206 -0.394989 153 0 76
-0.624806 -0.122264 0.005272 153 0 76
-0.311372 0.266064 -0.340851 153 0 76
-0.262229 -0.140131 0.490903 153 0 76
-0.120176 0.262642 -0.372500 204 51 127
-0.161106 -0.030035 -0.231907 153 0 76
0.612631 -0.003811 -0.262785 204 51 127
0.028104 0.070710 -0.300973 204 51 127
-0.036707 -0.115848 -0.204074 153 0 76
-0.372731 -0.070999 -0.133206 127 0 127
0.406812 0.211637 -0.354531 204 51 127
-0.398237 -0.121517 -0.219762 153 0 76
-0.529930 -0.089491 -0.118140 127 0 127
0.566351 -0.117173 -0.054718 153 0 76
0.568954 -0.130448 0.104959 0 127 127
-0.513903 -0.033929 -0.267895 204 51 127
0.463415 0.357605 -0.406049 204 51 127
0.093650 0.516945 -0.458555 204 51 127
-0.065658 -0.220810 0.385195 153 0 76
0.309998 -0.141125 0.514185 153 0 76
-0.601475 0.530895 -0.467145 204 51 127
0.016419 -0.139454 0.267316 0 127 127
-0.486774 -0.131004 0.172538 0 127 127
-0.045713 -0.220810 -0.018045 153 0 76
0.339701 -0.082452 -0.127836 204 51 127
-0.598008 0.593135 -0.489128 204 51 127
-0.476692 0.247381 -0.333976 153 0 76
-0.079796 0.477257 -0.418555 153 0 76
-0.617628 0.324853 -0.379895 204 51 127
0.352165 -0.138969 0.198895 0 127 127
-0.522918 0.046140 -0.259934 153 0 76
0.606032 0.419677 -0.417428 204 51 127
0.604897 -0.201828 0.612465 153 0 76
0.560722 0.326881 -0.381087 204 51 127
0.324967 -0.032425 -0.268434 204 51 127
0.350649 -0.135994 0.259677 0 127 127
-0.631143 -0.187006 0.467372 153 0 76
-0.422601 -0.046544 -0.213118 204 51 127
-0.334628 0.146648 -0.327739 204 51 127
0.328324 -0.134437 0.223202 0 127 127
-0.092401 -0.134436 0.251646 0 127 127
0.254708 -0.136582 0.143868 0 127 127
0.517317 0.442425 -0.405739 153 0 76
0.133030 0.047644 -0.260488 153 0 76
-0.626915 -0.217326 0.198759 153 0 76
0.028782 -0.137486 0.321932 0 127 127
-0.550635 -0.135791 -0.172841 153 0 76
-0.539639 0.093742 -0.277448 153 0 76
0.557960 0.196178 -0.349062 204 51 127
0.367691 -0.136219 0.135509 0 127 127
-0.223183 -0.220810 0.053612 153 0 76
0.340561 -0.142406 0.543735 153 0 76
0.323857 0.114783 -0.285190 153 0 76
0.466120 -0.220810 0.478835 153 0 76
-0.290922 0.628839 -0.493627 204 51 127
0.282287 -0.129656 -0.227177 153 0 76
-0.108781 0.133299 -0.322963 204 51 127
-0.085897 0.423368 -0.398727 153 0 76
-0.175617 0.503538 -0.453604 204 51 127
-0.019278 -0.128708 0.119619 0 127 127
0.610800 -0.131592 0.207109 153 0 76
-0.622499 0.464510 -0.407372 204 51 127
0.103732 -0.061157 -0.173035 204 51 127
-0.211338 -0.220810 0.207492 153 0 76
-0.102415 0.224922 -0.359204 204 51 127
0.119077 -0.220810 0.071811 153 0 76
-0.605223 -0.131969 -0.163355 204 51 127
0.292868 -0.220361 0.562046 153 0 76
-0.012476 -0.063664 -0.257329 204 51 127
-0.061074 -0.004700 -0.275353 204 51 127
0.144284 -0.220810 0.421672 153 0 76
-0.032915 0.465698 -0.414302 153 0 76
0.089087 0.062126 -0.301774 204 51 127
0.346856 0.594443 -0.489580 204 51 127
0.545419 0.406443 -0.392500 153 0 76
-0.053385 -0.114388 -0.124973 204 51 127
0.266365 -0.134481 0.095453 0 127 127
0.177420 0.356578 -0.374153 153 0 76
0.586836 -0.191718 0.058609 153 0 76
-0.359757 -0.062972 -0.152722 127 0 127
-0.116321 0.435330 -0.403129 153 0 76
-0.517123 0.245670 -0.363274 204 51 127
0.558040 0.454724 -0.429616 204 51 127
-0.345392 -0.220810 0.155605 153 0 76
-0.262286 0.089986 -0.276066 153 0 76
0.065561 0.474171 -0.443270 204 51 127
-0.119813 -0.147768 0.401700 0 127 127
0.225161 -0.220810 0.184462 153 0 76
-0.565872 0.163175 -0.334623 204 51 127
-0.586856 0.304635 -0.362474 204 51 127
-0.212149 0.199293 -0.346289 204 51 127
0.548978 0.041962 -0.294640 204 51 127
-0.102627 0.242856 -0.365564 204 51 127
-0.630021 0.170690 -0.326222 204 51 127
0.063069 0.447154 -0.407479 153 0 76
0.451838 -0.134715 0.258062 0 127 127
0.226040 -0.122561 -0.016092 153 0 76
0.506740 0.054832 -0.299227 204 51 127
0.467752 0.607260 -0.493365 204 51 127
0.161491 -0.109576 -0.223285 204 51 127
-0.478722 -0.165194 0.640179 153 0 76
0.425481 0.471905 -0.446350 204 51 127
-0.177731 0.165104 -0.303705 153 0 76
0.599079 -0.139176 0.351572 0 127 127
-0.329893 -0.133578 0.190191 0 127 127
-0.290419 -0.133232 0.066660 0 127 127
0.241888 0.313379 -0.358259 153 0 76
-0.303337 -0.128620 0.117582 0 127 127
0.597499 -0.016525 -0.234514 204 51 127
-0.631094 -0.202311 0.302656 153 0 76
-0.355586 -0.135960 0.129539 0 127 127
0.532840 -0.135990 0.142882 0 127 127
0.159792 -0.220810 0.274885 153 0 76
-0.327117 0.305125 -0.355222 153 0 76
-0.572674 -0.079458 -0.130271 204 51 127
0.456785 -0.220810 0.015798 153 0 76
-0.154319 -0.116839 -0.054752 153 0 76
-0.449520 -0.144260 0.587602 153 0 76
-0.067198 0.227940 -0.356367 204 51 127
0.368575 -0.058943 -0.166559 127 0 127
0.305825 -0.143625 0.572719 153 0 76
0.525163 0.111626 -0.315326 204 51 127
0.620843 0.569954 -0.454336 204 51 127
0.392129 -0.220810 0.209637 153 0 76
-0.136121 -0.132320 0.202860 0 127 127
0.619480 -0.116452 -0.081105 153 0 76
-0.458463 -0.114516 -0.119134 127 0 127
-0.379993 0.530195 -0.438032 153 0 76
0.554817 -0.163795 0.647404 153 0 76
0.051028 -0.064936 -0.158918 204 51 127
-0.069560 -0.137976 0.468639 76 0 153
-0.112539 0.404210 -0.418706 204 51 127
0.469474 -0.219263 0.573384 153 0 76
0.158198 -0.140479 0.233685 0 127 127
0.046979 0.271437 -0.375603 204 51 127
0.610481 -0.220516 0.123036 153 0 76
0.466998 -0.116127 -0.072940 153 0 76
-0.620182 -0.127814 -0.129281 127 0 127
-0.517943 -0.138770 0.194308 0 127 127
0.254740 -0.220206 -0.107710 153 0 76
0.599720 0.003916 -0.272082 204 51 127
0.145891 -0.050267 -0.204785 127 0 127
-0.096914 -0.128429 0.094234 0 127 127
-0.526096 -0.128687 0.093175 0 127 127
-0.587006 -0.143609 0.305852 0 127 127
-0.224372 0.243184 -0.332433 153 0 76
-0.447635 0.345493 -0.370075 153 0 76
0.584641 -0.128443 0.113525 0 127 127
0.066179 -0.134136 0.144101 0 127 127
0.298007 -0.106073 -0.227683 204 51 127
0.135355 -0.161973 0.642629 153 0 76
0.483427 -0.123427 -0.218211 153 0 76
-0.024090 -0.131266 0.148922 0 127 127
0.595658 -0.156133 0.134026 153 0 76
-0.386495 0.627582 -0.494046 204 51 127
-0.200650 -0.126096 0.027805 0 127 127
-0.135643 0.111037 -0.315121 204 51 127
0.241004 0.026925 -0.285455 204 51 127
-0.347664 -0.220810 -0.083558 153 0 76
0.059673 -0.220810 0.101724 153 0 76
0.269587 0.184594 -0.310875 153 0 76
-0.431789 -0.144641 0.596518 153 0 76
0.307658 -0.220810 0.500092 153 0 76
-0.254262 0.566121 -0.442927 204 51 127
0.570506 -0.129298 0.133224 0 127 127
0.184948 0.205485 -0.348934 204 51 127
-0.049371 0.575691 -0.445023 0 0 255
0.239688 0.184172 -0.310720 153 0 76
0.540694 -0.131828 -0.169536 204 51 127
-0.394022 -0.140220 0.357006 0 127 127
0.310637 -0.220810 0.019965 153 0 76
-0.281898 0.586618 -0.450473 204 51 127
0.408686 -0.054176 -0.190457 127 0 127
-0.630770 -0.162418 0.095621 153 0 76
-0.627443 0.636102 -0.475429 204 51 127
-0.411861 0.379543 -0.413746 204 51 127
-0.315278 -0.102648 -0.136221 127 0 127
-0.128622 0.238294 -0.363935 204 51 127
-0.585887 0.530594 -0.432493 204 51 127
0.580172 0.356593 -0.395106 204 51 127
-0.081164 -0.141108 0.405429 0 127 127
-0.193048 0.523967 -0.435741 153 0 76
0.079995 -0.135013 0.264948 0 127 127
-0.628770 -0.060197 -0.192905 127 0 127
0.519817 -0.138004 0.409306 153 0 76
0.196907 0.313128 -0.358167 153 0 76
-0.232679 0.119716 -0.287005 153 0 76
-0.052491 -0.133407 0.070688 0 127 127
-0.485733 -0.139539 0.477013 153 0 76
0.509618 -0.134710 0.219112 0 127 127
-0.484082 -0.220810 0.083906 153 0 76
-0.277749 -0.133657 0.191383 0 127 127
0.535857 -0.126267 0.063362 0 127 127
-0.496287 -0.068638 -0.137936 127 0 127
0.604875 -0.059397 -0.208283 204 51 127
-0.583896 -0.186544 0.626193 153 0 76
-0.615167 -0.134077 0.249942 0 127 127
0.137745 -0.054453 -0.260626 204 51 127
-0.145440 0.621368 -0.463465 204 51 127
0.079025 0.429511 -0.427513 204 51 127
-0.630239 -0.103096 -0.162391 127 0 127
0.490976 0.584692 -0.450404 204 51 127
-0.415858 0.138956 -0.294084 153 0 76
0.164530 0.287494 -0.381316 204 51 127
0.219707 0.250749 -0.368333 204 51 127
0.348795 -0.143674 0.307334 0 127 127
-0.281888 0.240756 -0.364815 204 51 127
0.265911 0.103631 -0.316402 204 51 127
0.267634 -0.220810 0.430791 153 0 76
0.435730 -0.135261 0.113420 0 127 127
0.512855 -0.179171 -0.195163 153 0 76
-0.060364 0.016413 -0.248997 153 0 76
0.312437 -0.136256 0.252280 0 127 127
-0.366974 -0.130083 -0.132845 127 0 127
-0.491353 -0.138543 0.207009 0 127 127
-0.323617 0.276836 -0.344814 153 0 76
-0.606673 0.060904 -0.262398 204 51 127
-0.061784 0.092715 -0.312552 204 51 127
-0.370278 -0.220810 0.238911 153 0 76
-0.167363 0.390629 -0.386682 153 0 76
0.390204 -0.102725 -0.136167 127 0 127
-0.371098 0.070897 -0.269043 153 0 76
0.056000 -0.120217 -0.129336 204 51 127
-0.492247 -0.140139 0.383097 0 127 127
0.229821 -0.128123 0.106140 0 127 127
0.042078 -0.220810 0.212869 153 0 76
-0.574476 -0.145701 0.621340 153 0 76
0.094930 -0.127015 0.080605 0 127 127
0.107750 -0.143391 0.594123 153 76 0
-0.066362 -0.126551 0.038470 0 127 127
-0.115104 0.187983 -0.312122 153 0 76
-0.604392 0.159161 -0.330386 204 51 127
-0.159669 -0.070315 -0.143298 204 51 127
-0.248867 -0.159675 -0.211451 153 0 76
-0.566624 -0.220810 0.220627 153 0 76
0.568696 0.107653 -0.285373 204 51 127
-0.544580 0.398622 -0.389623 153 0 76
0.125763 -0.131432 -0.177383 204 51 127
0.615737 -0.052045 -0.259277 204 51 127
-0.068697 -0.140202 0.320408 0 127 127
-0.277433 0.330982 -0.364736 153 0 76
-0.536940 0.419657 -0.424003 204 51 127
0.291321 -0.126745 0.043023 0 127 127
0.066558 -0.220810 0.312910 153 0 76
-0.526700 -0.004807 -0.241189 153 0 76
-0.374059 0.275258 -0.373354 204 51 127
-0.520146 -0.220810 0.383711 153 0 76
0.338870 -0.220810 0.197684 153 0 76
-0.613795 -0.178098 0.357730 153 0 76
-0.028885 -0.117654 -0.219400 127 0 127
-0.056800 -0.143512 0.591898 76 0 153
-0.374182 -0.202693 -0.163849 153 0 76
0.382912 -0.220810 0.179380 153 0 76
0.160119 -0.028940 -0.232310 153 0 76
-0.006432 -0.108001 -0.195417 127 0 127
0.171175 -0.035051 -0.263609 204 51 127
-0.437425 -0.128526 0.115422 0 127 127
-0.426637 -0.220810 0.168511 153 0 76
0.598482 0.442505 -0.397397 204 51 127
0.142792 0.431908 -0.432241 204 51 127
0.626503 -0.147158 0.577682 153 0 76
0.306688 -0.035868 -0.263321 204 51 127
-0.257262 -0.142551 0.546931 153 0 76
0.294720 0.075065 -0.270576 153 0 76
-0.229936 -0.220810 0.354619 153 0 76
-0.140185 0.091288 -0.308191 204 51 127
-0.281707 0.367486 -0.378167 153 0 76
0.491765 0.308915 -0.356617 153 0 76
-0.192499 -0.062179 -0.168968 204 51 127
-0.414325 -0.146064 0.362431 0 127 127
-0.029752 -0.049583 -0.223454 204 51 127
-0.417664 -0.097694 -0.177456 127 0 127
0.197105 0.582197 -0.448724 204 51 127
-0.237415 -0.130878 0.169650 0 127 127
0.595843 0.203118 -0.342509 204 51 127
0.476466 0.544791 -0.448084 204 51 127
-0.466289 0.417238 -0.396472 153 0 76
0.401317 -0.141306 0.269777 0 127 127
0.068780 0.133026 -0.322867 204 51 127
0.191264 -0.143713 0.308251 0 127 127
-0.491580 0.459955 -0.412189 153 0 76
0.019102 -0.101474 -0.236963 127 0 127
-0.617859 -0.134730 -0.152735 153 0 76
-0.304766 0.124431 -0.319830 204 51 127
-0.069849 -0.220810 0.141203 153 0 76
-0.070916 0.443621 -0.432673 204 51 127
-0.484278 0.265173 -0.373393 204 51 127
0.216444 0.277460 -0.345043 153 0 76
0.012913 -0.220810 -0.077104 153 0 76
-0.627529 -0.120328 -0.018505 153 0 76
-0.519182 -0.059394 -0.182845 204 51 127
0.414260 -0.129446 0.079956 0 127 127
-0.551429 -0.134055 -0.149668 153 0 76
-0.477418 -0.220810 0.065921 153 0 76
0.148357 0.591279 -0.452053 204 51 127
0.300700 -0.142221 0.406702 0 127 127
0.214512 -0.126054 0.058444 0 127 127
-0.282297 0.136543 -0.324106 204 51 127
0.204328 0.293854 -0.383530 204 51 127
-0.597199 -0.206419 -0.156636 153 0 76
0.079173 -0.207415 0.605167 153 0 76
0.277606 -0.145051 0.606120 153 0 76
0.492709 0.390564 -0.386658 153 0 76
0.353595 -0.143290 0.564552 153 0 76
-0.128442 -0.126250 0.031412 0 127 127
0.323783 -0.220810 0.320734 153 0 76
-0.175812 -0.107294 -0.195071 127 0 127
0.389207 -0.216451 -0.130340 153 0 76
0.572715 -0.122919 -0.015729 153 0 76
-0.397983 0.499671 -0.456126 204 51 127
0.095035 0.276984 -0.373698 204 51 127
-0.228189 0.148464 -0.297582 153 0 76
-0.569569 0.270390 -0.342442 153 0 76
0.553152 0.050548 -0.261556 153 0 76
0.112223 -0.147810 0.402669 0 127 127
-0.419675 -0.136103 0.136686 0 127 127
0.466797 -0.135934 0.156711 0 127 127
-0.068487 -0.134885 0.229513 0 127 127
0.398751 0.543953 -0.471752 204 51 127
-0.298459 -0.131494 0.183840 0 127 127
0.330322 -0.144733 0.598668 153 0 76
0.535229 -0.137426 0.320567 0 127 127
0.580414 0.221534 -0.354153 204 51 127
-0.521440 -0.206607 -0.156239 153 0 76
-0.535152 0.587318 -0.487093 204 51 127
-0.138921 0.538248 -0.440995 153 0 76
-0.207057 0.112972 -0.319699 204 51 127
-0.205041 0.407151 -0.392761 153 0 76
-0.229721 -0.130259 0.144269 0 127 127
-0.288713 -0.144236 0.332959 0 127 127
-0.171319 -0.120703 -0.024540 153 0 76
0.552114 0.550049 -0.473903 204 51 127
-0.504787 -0.179178 -0.195174 153 0 76
-0.161197 -0.136424 0.268318 0 127 127
-0.376269 0.576158 -0.483119 204 51 127
0.226771 0.574891 -0.482668 204 51 127
0.307716 0.291229 -0.350110 153 0 76
0.216437 -0.220810 0.362013 153 0 76
-0.306162 -0.214126 0.592943 153 0 76
0.334794 -0.220810 0.443357 153 0 76
0.125108 0.320692 -0.360950 153 0 76
-0.623088 -0.219021 0.261583 153 0 76
-0.311354 -0.061092 -0.158711 127 0 127
-0.103952 0.339686 -0.367938 153 0 76
-0.335592 -0.144997 -0.220764 153 0 76
0.262605 0.237101 -0.330194 153 0 76
-0.208232 -0.220810 0.514928 153 0 76
0.370272 -0.136299 0.294575 0 127 127
-0.468145 -0.191553 0.622333 153 0 76
0.002683 -0.116062 -0.072950 153 0 76
0.366941 0.246070 -0.333494 153 0 76
-0.327235 -0.005304 -0.241006 153 0 76
0.115674 0.204473 -0.352030 204 51 127
0.312341 0.380788 -0.383061 153 0 76
-0.519285 -0.220805 -0.086591 153 0 76
-0.324734 -0.220810 0.463213 153 0 76
-0.464712 0.527505 -0.456654 204 51 127
-0.329698 -0.012491 -0.275429 204 51 127
0.532259 -0.132098 0.197751 0 127 127
-0.554863 -0.220810 -0.022572 153 0 76
-0.616186 0.452062 -0.429473 204 51 127
0.290903 -0.058442 -0.190934 204 51 127
0.338671 -0.121264 -0.207022 204 51 127
0.424236 -0.220810 0.296182 153 0 76
0.173405 0.322443 -0.361594 153 0 76
0.265130 0.512991 -0.431702 153 0 76
-0.589048 -0.064211 -0.257088 204 51 127
-0.626466 0.022717 -0.245303 204 51 127
-0.158714 -0.097981 -0.139713 127 0 127
-0.159595 -0.144699 0.330973 0 127 127
0.345428 -0.220810 0.462802 153 0 76
0.305007 0.557273 -0.442364 204 51 127
0.539057 -0.109581 -0.117509 127 0 127
-0.627992 -0.215712 0.429874 153 0 76
-0.129916 -0.119412 -0.121462 127 0 127
0.199419 0.093531 -0.277371 153 0 76
0.588849 0.106466 -0.273227 204 51 127
0.384590 0.208623 -0.353478 204 51 127
-0.392337 -0.075991 -0.126280 127 0 127
0.152225 -0.220810 0.145405 153 0 76
-0.077484 -0.115651 -0.118162 153 0 76
0.567362 0.265814 -0.343829 204 51 127
-0.605181 -0.017361 -0.235051 204 51 127
-0.619966 -0.035484 -0.267073 204 51 127
-0.225526 -0.143116 0.545434 153 0 76
0.365129 -0.220810 0.073318 153 0 76
0.218829 -0.144653 0.406272 0 127 127
-0.620459 0.240402 -0.364373 204 51 127
-0.216864 0.588484 -0.451113 204 51 127
-0.232614 0.622151 -0.494824 204 51 127
0.107801 -0.171689 -0.202123 153 0 76
-0.188139 -0.117911 -0.211993 204 51 127
-0.303639 -0.220810 0.256349 153 0 76
0.321251 0.406521 -0.419413 204 51 127
-0.246350 0.217110 -0.352564 204 51 127
0.174877 -0.220810 0.023014 153 0 76
0.386697 0.611494 -0.460634 204 51 127
-0.277609 -0.138764 0.458878 153 0 76
-0.231309 -0.139645 0.345096 0 127 127
-0.242770 -0.006387 -0.274671 204 51 127
-0.182376 0.054481 -0.263003 153 0 76
0.226083 -0.145960 0.360034 0 127 127
-0.290918 -0.133550 0.094270 0 127 127
0.096665 -0.145942 0.359625 0 127 127
-0.292474 -0.125847 0.021979 0 127 127
-0.436699 0.414897 -0.395611 153 0 76
0.287985 -0.220810 0.102870 153 0 76
-0.003530 -0.135170 0.268568 0 127 127
-0.314909 0.462034 -0.438958 204 51 127
-0.610559 -0.050795 -0.201671 127 0 127
-0.030052 0.631912 -0.492505 204 51 127
-0.440149 0.366827 -0.377924 153 0 76
0.556549 -0.069209 -0.146344 204 51 127
-0.029009 0.001735 -0.277287 204 51 127
0.179339 0.191444 -0.313396 153 0 76
-0.243834 0.441250 -0.435553 204 51 127
0.039341 -0.146982 0.635034 153 0 76
-0.432048 0.387344 -0.416502 204 51 127
0.107405 0.440213 -0.431290 204 51 127
0.412794 0.467952 -0.415131 153 0 76
-0.140839 -0.141250 0.251469 0 127 127
0.013958 -0.125736 0.019378 0 127 127
0.005135 0.533677 -0.454246 204 51 127
0.100204 0.006642 -0.282208 204 51 127
-0.366421 -0.212310 0.596686 153 0 76
0.247942 -0.143056 0.293087 0 127 127
0.396463 0.397541 -0.389225 153 0 76
0.379204 -0.034237 -0.230361 153 0 76
0.056421 -0.135685 -0.160880 127 0 127
0.303055 -0.120046 -0.129096 204 51 127
0.101996 -0.137549 0.282088 0 127 127
0.117872 -0.116388 -0.115796 153 0 76
-0.305517 -0.116125 -0.071462 153 0 76
-0.455111 -0.147625 0.398404 0 127 127
0.266132 -0.139113 -0.223701 153 0 76
-0.186199 -0.140094 0.382063 0 127 127
-0.386733 0.156785 -0.300644 153 0 76
0.191300 -0.141955 0.282873 0 127 127
-0.165292 -0.125726 -0.197207 204 51 127
0.100554 -0.204100 -0.161403 153 0 76
0.182896 0.176695 -0.342179 204 51 127
0.149963 0.362506 -0.403829 204 51 127
-0.578703 0.054979 -0.281624 204 51 127
0.279581 0.269063 -0.374766 204 51 127
-0.478541 -0.220810 0.483846 153 0 76
0.059389 0.061483 -0.297672 204 51 127
-0.311127 -0.139764 0.374457 0 127 127
0.067253 -0.067680 -0.150541 204 51 127
-0.592469 0.296094 -0.384309 204 51 127
-0.456967 0.554043 -0.446807 153 0 76
-0.070044 -0.220810 0.006883 153 0 76
-0.069657 -0.131776 -0.226509 153 0 76
-0.311973 0.200711 -0.347296 204 51 127
-0.619330 -0.116749 -0.058166 153 0 76
-0.427171 0.395929 -0.388632 153 0 76
0.587518 -0.134087 0.219147 0 127 127
0.489144 -0.220810 -0.010437 153 0 76
0.365753 -0.147862 0.403863 0 127 127
-0.440654 -0.220810 0.446135 153 0 76
0.070541 0.608507 -0.458089 204 51 127
-0.010436 -0.220810 0.420585 153 0 76
-0.496218 0.478131 -0.444667 204 51 127
-0.311839 -0.140540 0.235112 0 127 127
0.626142 -0.208183 0.456173 153 0 76
0.515817 0.484915 -0.421372 153 0 76
0.011928 0.226522 -0.326302 153 0 76
-0.397329 -0.057459 -0.256460 204 51 127
-0.293168 -0.217019 -0.128028 153 0 76
-0.029420 0.192675 -0.313849 153 0 76
-0.467232 -0.131516 0.050120 0 127 127
0.216495 -0.125537 0.014722 0 127 127
0.077910 -0.097018 -0.164745 127 0 127
-0.065243 -0.122494 -0.123679 127 0 127
0.340960 -0.100476 -0.232603 204 51 127
-0.472422 0.349889 -0.371692 153 0 76
-0.291542 0.489704 -0.448747 204 51 127
0.229808 0.590321 -0.451702 204 51 127
0.224351 -0.200110 -0.168336 153 0 76
0.588440 -0.138297 0.434143 153 0 76
0.404782 -0.129182 0.130544 0 127 127
0.622112 0.079501 -0.284182 204 51 127
-0.264977 0.466577 -0.440581 204 51 127
0.428563 0.164585 -0.334086 204 51 127
-0.454026 -0.133981 -0.143856 127 0 127
0.293365 -0.126324 0.064677 0 127 127
0.613173 -0.174873 -0.199086 153 0 76
-0.385967 0.376807 -0.412780 204 51 127
0.299172 -0.050284 -0.203709 127 0 127
0.324378 -0.220810 -0.046421 153 0 76
-0.496606 0.496746 -0.425725 153 0 76
-0.430652 0.341046 -0.400163 204 51 127
0.167853 -0.220810 0.419459 153 0 76
-0.545060 -0.138475 0.452088 153 0 76
0.532731 -0.220810 -0.042459 153 0 76
0.595889 -0.195469 -0.175322 153 0 76
0.148463 -0.132922 0.059515 0 127 127
-0.342638 0.093812 -0.311823 0 255 0
-0.276607 -0.137199 0.422177 153 0 76
0.126446 -0.138882 0.354108 0 127 127
-0.170773 -0.127666 -0.227302 153 0 76
-0.597558 -0.081173 -0.130051 204 51 127
0.629563 -0.198048 0.276216 153 0 76
0.291825 -0.220810 0.423666 153 0 76
0.269589 -0.147376 0.393461 0 127 127
-0.446885 0.091806 -0.276736 153 0 76
0.447652 0.322181 -0.389653 204 51 127
0.572736 0.099363 -0.275105 204 51 127
-0.291200 0.073616 -0.270043 153 0 76
0.006902 -0.018985 -0.269316 204 51 127
0.266511 0.348417 -0.399046 204 51 127
-0.490048 -0.019670 -0.269038 204 51 127
-0.178187 -0.008674 -0.273935 204 51 127
-0.578243 0.509668 -0.428389 204 51 127
0.089155 0.377921 -0.409269 204 51 127
-0.630156 0.302715 -0.361812 204 51 127
-0.608952 -0.127547 -0.209052 153 0 76
-0.249241 0.101421 -0.280274 153 0 76
0.107293 0.038630 -0.257171 153 0 76
0.346836 0.437422 -0.434216 204 51 127
-0.630212 -0.098581 -0.144013 127 0 127
-0.402969 0.258488 -0.338063 153 0 76
0.444464 -0.219170 -0.116759 153 0 76
-0.628409 0.521790 -0.432415 204 51 127
-0.451599 0.521089 -0.434682 153 0 76
0.287059 -0.133137 0.171988 0 127 127
-0.011456 -0.061671 -0.182685 127 0 127
0.365989 -0.140270 0.359861 0 127 127
-0.634869 -0.140329 0.112296 153 0 76
-0.218790 -0.137294 0.317514 0 127 127
0.156438 -0.116769 -0.056393 153 0 76
0.075395 0.159063 -0.335990 204 51 127
0.127455 -0.220810 0.335810 153 0 76
-0.381295 -0.216056 -0.131949 153 0 76
0.124380 -0.220810 0.457883 153 0 76
-0.001824 -0.091907 -0.123303 204 51 127
-0.275554 -0.146569 0.374077 0 127 127
-0.099074 -0.118236 -0.211509 204 51 127
-0.477546 -0.130777 0.137484 0 127 127
-0.555914 -0.138827 0.270095 0 127 127
-0.411180 -0.001437 -0.242429 153 0 76
0.004913 0.290252 -0.349750 153 0 76
0.561370 0.626323 -0.466086 204 51 127
0.362639 0.023666 -0.288184 204 51 127
-0.609572 -0.220713 -0.089970 153 0 76
-0.099973 -0.133127 0.064238 0 127 127
-0.246943 0.196251 -0.315164 153 0 76
-0.429533 -0.220810 0.524431 153 0 76
-0.034781 0.259134 -0.338301 153 0 76
-0.101540 0.293887 -0.379667 204 51 127
-0.070339 -0.220810 0.403746 153 0 76
0.582726 0.192287 -0.305387 204 51 127
-0.064274 -0.047519 -0.260235 204 51 127
0.628795 -0.132341 0.156515 153 0 76
-0.113593 -0.141610 0.259767 0 127 127
0.561566 0.424834 -0.412699 204 51 127
-0.060945 0.205245 -0.318474 153 0 76
-0.419958 -0.220810 0.049791 153 0 76
-0.547561 -0.126350 0.065267 0 127 127
-0.035116 -0.065750 -0.156452 204 51 127
0.422268 0.079301 -0.272135 153 0 76
0.397601 0.021844 -0.283682 204 51 127
-0.578140 0.540285 -0.470457 204 51 127
-0.087362 -0.003527 -0.241660 153 0 76
0.350634 -0.019155 -0.235910 153 0 76
0.450232 0.513645 -0.458252 204 51 127
0.585523 0.272405 -0.351917 204 51 127
0.482214 -0.058375 -0.259242 204 51 127
0.473441 0.259140 -0.371264 204 51 127
-0.156647 0.320757 -0.360974 153 0 76
0.594605 0.263961 -0.331409 204 51 127
-0.228253 -0.094487 -0.242297 127 0 127
-0.245353 -0.220810 0.111935 153 0 76
-0.088969 -0.131813 -0.169792 204 51 127
-0.394743 -0.220810 0.127032 153 0 76
0.440015 -0.212271 -0.143314 153 0 76
-0.493006 0.043368 -0.258914 153 0 76
-0.231113 -0.125904 0.023318 0 127 127
0.429044 -0.130728 0.166194 0 127 127
-0.244260 -0.214202 0.592788 153 0 76
-0.347263 -0.101138 -0.137251 127 0 127
0.252794 -0.116001 -0.215348 204 51 127
0.430101 -0.047036 -0.259349 204 51 127
-0.483992 -0.096762 -0.165772 127 0 127
0.485490 0.350940 -0.372079 153 0 76
0.437511 -0.136739 0.207087 0 127 127
0.366201 0.379818 -0.413844 204 51 127
-0.512879 -0.060884 -0.258317 204 51 127
0.564553 0.297009 -0.352236 153 0 76
0.508522 0.205408 -0.318533 153 0 76
0.366098 -0.114236 -0.118996 127 0 127
0.471725 0.002052 -0.243713 153 0 76
-0.362131 0.007835 -0.278740 204 51 127
-0.566063 0.605458 -0.492949 204 51 127
-0.091366 0.269059 -0.370873 204 51 127
0.612970 0.530550 -0.450227 204 51 127
-0.464217 0.101652 -0.280359 153 0 76
-0.615604 0.433655 -0.420141 204 51 127
-0.069316 -0.025868 -0.233440 153 0 76
-0.086908 -0.131772 -0.136595 127 0 127
0.389203 -0.220810 0.095919 153 0 76
0.285306 -0.139223 0.204730 0 127 127
0.088087 -0.082312 -0.121408 127 0 127
-0.377666 -0.138645 0.345139 0 127 127
-0.475354 0.000270 -0.279933 204 51 127
0.025062 -0.220810 0.093684 153 0 76
-0.326866 -0.144141 0.331743 0 127 127
-0.156480 0.560762 -0.477684 204 51 127
0.315609 -0.147337 0.392552 0 127 127
-0.545393 -0.147297 0.390848 0 127 127
-0.255533 -0.144444 0.589258 153 0 76
-0.440962 -0.133169 0.222430 0 127 127
0.074452 0.621044 -0.494831 204 51 127
-0.422145 -0.136395 0.219132 0 127 127
-0.310839 0.423449 -0.398757 153 0 76
-0.383778 -0.143868 0.311815 0 127 127
0.583812 0.525790 -0.465368 204 51 127
-0.336736 -0.038477 -0.228740 204 51 127
0.051311 -0.103482 -0.116535 127 0 127
-0.345516 0.114360 -0.285034 153 0 76
0.109370 0.468318 -0.415266 153 0 76
-0.410975 0.328673 -0.391941 204 51 127
-0.531020 0.015457 -0.281452 204 51 127
0.370866 -0.220810 0.286497 153 0 76
0.450182 -0.135151 -0.151859 127 0 127
0.211731 -0.128377 -0.129942 127 0 127
-0.322475 0.328244 -0.395648 204 51 127
-0.311820 0.571176 -0.444699 204 51 127
-0.023235 0.192812 -0.347864 204 51 127
0.061319 -0.145900 0.624781 153 0 76
0.322479 0.045336 -0.259638 153 0 76
0.425231 0.029893 -0.253957 153 0 76
-0.235004 -0.128649 0.049861 0 127 127
0.452596 -0.132298 -0.138220 127 0 127
0.368554 -0.057138 -0.206381 204 51 127
0.354197 0.081504 -0.304729 204 51 127
0.540825 0.071911 -0.269416 153 0 76
-0.290412 0.282248 -0.346805 153 0 76
0.412172 0.145753 -0.296585 153 0 76
0.466041 -0.220810 0.266832 153 0 76
0.335643 -0.034162 -0.230389 153 0 76
-0.140816 -0.145335 0.345641 0 127 127
-0.137928 -0.204538 -0.160619 153 0 76
-0.381985 -0.159945 -0.211268 153 0 76
0.005510 0.074572 -0.302378 204 51 127
0.521765 0.536963 -0.452643 204 51 127
0.533394 -0.116180 -0.087160 153 0 76
-0.498842 0.057149 -0.263985 153 0 76
0.436122 0.043697 -0.259035 153 0 76
-0.438135 -0.138611 0.190652 0 127 127
-0.362553 -0.040785 -0.265447 204 51 127
-0.534028 -0.220810 0.462961 153 0 76
-0.264551 0.110250 -0.283522 153 0 76
0.329620 -0.123912 -0.007180 0 127 127
-0.374128 -0.220810 0.278973 153 0 76
0.068880 -0.141418 0.255351 0 127 127
0.463461 -0.220810 0.302463 153 0 76
0.326706 0.237641 -0.363701 204 51 127
-0.290404 0.057948 -0.300315 204 51 127
0.621689 -0.180249 -0.124562 153 0 76
-0.345340 -0.204136 -0.161341 153 0 76
0.592722 0.439587 -0.427955 204 51 127
0.091664 0.479799 -0.449165 204 51 127
0.491868 0.622170 -0.464546 204 51 127
0.086737 0.055311 -0.263309 153 0 76
0.506362 -0.048503 -0.209651 204 51 127
0.087022 0.102636 -0.280721 153 0 76
0.536145 0.199031 -0.316187 153 0 76
-0.386267 -0.128188 0.107636 0 127 127
-0.537500 0.216907 -0.353460 204 51 127
-0.519983 -0.219849 0.568925 153 0 76
-0.576382 0.013582 -0.247269 204 51 127
0.512181 0.336988 -0.398733 204 51 127
0.150255 0.013144 -0.280615 204 51 127
0.279320 -0.096701 -0.159819 127 0 127
-0.608440 0.246193 -0.324357 204 51 127
0.439080 -0.220708 0.552607 153 0 76
0.047768 -0.146373 0.369558 0 127 127
-0.572136 0.339533 -0.393244 204 51 127
-0.522218 0.285802 -0.377333 204 51 127
-0.121572 -0.126359 -0.204802 127 0 127
-0.433569 -0.128170 0.076074 0 127 127
0.168641 0.454401 -0.410145 153 0 76
0.538052 0.154400 -0.334317 204 51 127
-0.627949 -0.187463 0.399434 153 0 76
0.432321 -0.138753 0.351141 0 127 127
-0.243216 -0.220810 0.189079 153 0 76
-0.326989 0.501839 -0.427599 153 0 76
-0.499719 -0.220810 0.148770 153 0 76
0.192107 0.059240 -0.264754 153 0 76
0.374960 0.603727 -0.457754 204 51 127
0.434054 -0.136707 0.303986 0 127 127
0.463844 -0.126505 -0.194229 204 51 127
0.311586 0.071773 -0.301263 204 51 127
0.284344 0.213906 -0.355321 204 51 127
0.319881 -0.138628 0.455671 153 0 76
0.538408 -0.220810 0.439011 153 0 76
0.316708 -0.145120 0.607734 153 0 76
-0.028260 -0.113328 -0.124371 127 0 127
0.120893 -0.131894 0.193051 0 127 127
-0.309270 -0.137278 0.317148 0 127 127
-0.048965 -0.066450 -0.153272 127 0 127
-0.042141 -0.137719 0.412352 153 0 76
-0.187370 -0.220810 0.347491 153 0 76
-0.463775 -0.163430 -0.208777 153 0 76
-0.012247 0.318484 -0.360137 153 0 76
0.111787 -0.129537 0.138712 0 127 127
-0.551485 -0.203938 0.609860 153 0 76
-0.508463 -0.133005 0.061425 0 127 127
-0.178662 -0.143377 0.548214 76 0 153
-0.336679 -0.026613 -0.270488 204 51 127
-0.277440 0.532126 -0.467576 204 51 127
0.142833 0.210480 -0.350239 204 51 127
0.053781 0.190285 -0.312969 153 0 76
0.302949 -0.146412 0.634096 153 0 76
0.503538 -0.220810 0.386882 153 0 76
0.602006 -0.187959 0.037639 153 0 76
0.572657 0.254254 -0.365489 204 51 127
-0.013862 -0.136857 0.155920 0 127 127
0.190070 -0.104185 -0.121229 204 51 127
