ply
format ascii 1.0
element vertex 1244
property float x
property float y
property float z
property uchar red
property uchar green
property uchar blue
end_header
-0.321948 -0.218914 0.112398 153 0 76
0.187772 0.170118 -0.337929 204 51 127
-0.596308 0.342099 -0.361799 204 51 127
-0.629259 -0.173907 -0.046363 153 0 76
-0.273924 -0.218914 0.282068 153 0 76
-0.535852 0.620965 -0.465013 204 51 127
-0.392145 0.236135 -0.329839 153 0 76
-0.489717 0.298249 -0.383135 204 51 127
-0.184542 -0.104426 -0.139844 127 0 127
-0.074821 0.351130 -0.372149 153 0 76
0.062191 -0.218914 0.550009 153 0 76
-0.166013 -0.218914 0.273788 153 0 76
0.236757 -0.059974 -0.169372 204 51 127
-0.044454 0.099666 -0.313072 204 51 127
0.046247 0.335262 -0.396194 204 51 127
0.227024 -0.125707 -0.025781 153 0 76
0.301548 -0.218914 0.008231 153 0 76
0.274401 -0.147024 -0.217690 153 0 76
-0.477537 0.174943 -0.307325 153 0 76
0.620684 0.426507 -0.408860 204 51 127
0.087787 0.007616 -0.280596 204 51 127
-0.374688 -0.137834 -0.182686 127 0 127
-0.414797 0.466114 -0.414455 153 0 76
0.377658 -0.137789 0.171703 0 127 127
-0.003963 -0.139167 0.423832 153 0 76
-0.334913 0.548222 -0.444665 153 0 76
0.248740 -0.127742 0.021896 0 127 127
0.501816 -0.146459 0.371546 0 127 127
-0.311848 -0.119412 -0.038928 153 0 76
-0.598534 -0.218914 0.212055 153 0 76
0.330413 -0.134979 0.191425 0 127 127
0.185199 0.387869 -0.414755 204 51 127
0.501513 -0.212473 -0.138004 153 0 76
-0.006004 -0.217339 0.577625 153 0 76
-0.063247 -0.218914 -0.038280 153 0 76
0.532271 -0.138621 0.411027 153 0 76
-0.075933 -0.143313 0.557791 76 0 153
0.384751 -0.218914 0.119880 153 0 76
0.008993 0.515458 -0.432610 153 0 76
-0.174471 -0.127524 0.016799 0 127 127
0.126021 0.325047 -0.362552 153 0 76
0.401379 -0.118770 -0.053977 153 0 76
-0.427915 -0.147210 0.612225 153 0 76
0.058759 -0.101205 -0.192141 127 0 127
-0.150424 -0.149710 0.621264 153 0 76
-0.039432 -0.127081 -0.124086 204 51 127
0.006763 0.630506 -0.492875 204 51 127
0.324336 -0.214639 0.587641 153 0 76
0.222648 -0.137783 0.234195 0 127 127
-0.252769 -0.142435 0.500369 153 0 76
-0.258017 0.313304 -0.358232 153 0 76
0.552810 -0.218914 -0.091531 153 0 76
-0.412895 -0.218914 0.304778 153 0 76
0.072740 -0.137243 0.316354 0 127 127
-0.223603 0.612130 -0.493785 204 51 127
-0.284320 -0.023298 -0.234386 153 0 76
-0.410510 0.081755 -0.273038 153 0 76
-0.051707 0.267166 -0.341256 153 0 76
0.386338 -0.139441 0.367015 0 127 127
-0.391131 0.371487 -0.379639 153 0 76
-0.546329 0.319542 -0.390648 204 51 127
-0.373064 0.367974 -0.407735 204 51 127
0.036081 0.152201 -0.331607 204 51 127
-0.403806 0.597653 -0.488769 204 51 127
-0.597011 0.474917 -0.445466 204 51 127
0.472575 -0.218914 0.329551 153 0 76
0.223448 -0.218914 0.216059 153 0 76
0.210753 -0.218914 0.411303 153 0 76
0.458423 0.077150 -0.271344 153 0 76
-0.274426 -0.117233 -0.089974 153 0 76
-0.327139 0.569593 -0.478870 204 51 127
-0.312798 -0.200190 0.612276 153 0 76
-0.604052 -0.128486 0.040183 0 127 127
-0.065936 -0.140024 0.223215 0 127 127
0.571971 -0.133506 0.072970 0 127 127
-0.548583 0.208733 -0.319757 153 0 76
-0.423307 -0.137654 0.254098 0 127 127
-0.148520 0.242965 -0.332352 153 0 76
0.532898 0.628154 -0.467673 204 51 127
-0.480659 -0.198817 -0.167269 153 0 76
-0.500241 -0.051840 -0.215994 204 51 127
0.099285 -0.218914 -0.038521 153 0 76
0.271529 -0.058867 -0.174403 127 0 127
0.343688 -0.079166 -0.249362 204 51 127
0.249151 -0.205101 -0.155814 153 0 76
-0.599797 0.252873 -0.367126 204 51 127
0.217594 -0.218914 0.012808 153 0 76
0.137856 -0.146992 0.383819 0 127 127
0.333652 -0.130424 0.084716 0 127 127
0.571869 -0.048401 -0.217267 204 51 127
-0.614401 0.032205 -0.247101 204 51 127
-0.228495 0.266556 -0.341032 153 0 76
-0.317818 0.288867 -0.349241 153 0 76
0.126488 0.292230 -0.381012 204 51 127
0.552947 -0.218914 0.445250 153 0 76
0.188065 -0.218914 0.493252 153 0 76
-0.273358 -0.138724 0.193238 0 127 127
-0.522005 0.525294 -0.463240 204 51 127
-0.264971 -0.132735 -0.202500 204 51 127
-0.156506 -0.139441 0.367008 0 127 127
0.044513 0.426269 -0.428303 204 51 127
-0.224003 0.083549 -0.307386 204 51 127
0.495238 0.470559 -0.416090 153 0 76
0.466843 -0.207448 0.459163 153 0 76
0.245462 -0.106611 -0.230019 204 51 127
-0.386112 -0.144787 0.555481 153 0 76
0.619792 -0.175803 -0.146040 153 0 76
0.579060 -0.218914 0.088585 153 0 76
-0.068376 -0.142061 0.528458 76 0 153
0.504784 0.041626 -0.258274 153 0 76
0.196733 -0.218914 0.315187 153 0 76
-0.233281 0.114508 -0.318309 204 51 127
-0.163436 -0.218914 0.077689 153 0 76
0.594642 0.174321 -0.299701 204 51 127
0.099633 0.442811 -0.405881 153 0 76
0.468470 -0.218914 0.208775 153 0 76
0.116036 0.532503 -0.438881 153 0 76
-0.346936 0.344811 -0.369824 153 0 76
-0.586246 -0.171798 0.408886 153 0 76
0.337744 -0.130604 -0.189619 127 0 127
0.573742 0.459108 -0.439889 204 51 127
0.544484 -0.018366 -0.236201 153 0 76
0.141932 0.280833 -0.346285 153 0 76
-0.469449 -0.143031 0.514335 153 0 76
0.262821 -0.061096 -0.256353 204 51 127
0.181128 -0.150164 -0.215918 153 0 76
-0.192828 -0.153163 0.646213 153 0 76
0.099692 -0.138269 -0.158625 127 0 127
0.620684 -0.089216 -0.168784 127 0 127
-0.185002 -0.218914 0.013702 153 0 76
0.358498 -0.218914 0.296251 153 0 76
-0.403534 -0.141978 0.355377 0 127 127
0.224947 -0.171705 0.632256 153 0 76
-0.042542 0.038677 -0.257189 153 0 76
0.532473 0.237463 -0.361689 204 51 127
-0.635261 -0.143413 0.523295 153 0 76
-0.605259 -0.191411 0.100296 153 0 76
0.304253 -0.134941 0.263279 0 127 127
-0.230447 -0.128023 0.103828 0 127 127
-0.351188 -0.218914 0.156684 153 0 76
-0.265380 -0.141542 0.269977 0 127 127
-0.371654 -0.183299 -0.188233 153 0 76
-0.479220 0.597717 -0.456408 204 51 127
-0.443245 -0.218914 0.153651 153 0 76
-0.182119 -0.133842 -0.199473 127 0 127
-0.049775 -0.148475 0.641860 153 0 76
0.152976 0.356011 -0.403515 204 51 127
-0.167555 0.329565 -0.394184 204 51 127
-0.121776 -0.134460 -0.197374 127 0 127
0.533582 -0.218914 0.211870 153 0 76
-0.544095 -0.218914 0.509722 153 0 76
-0.139847 0.123822 -0.288516 153 0 76
0.424023 -0.142509 0.502119 153 0 76
0.271871 -0.218914 0.023742 153 0 76
0.432199 0.059748 -0.298989 204 51 127
0.579049 0.053390 -0.259916 204 51 127
-0.216355 -0.139059 0.200968 0 127 127
0.036279 -0.176336 -0.195519 153 0 76
-0.629259 -0.141981 -0.095563 153 0 76
-0.607933 -0.193037 0.398757 153 0 76
0.179468 -0.035988 -0.229717 204 51 127
-0.260642 -0.218914 -0.094304 153 0 76
0.280631 -0.133011 0.061568 0 127 127
0.179608 0.112917 -0.284504 153 0 76
0.004443 -0.081583 -0.248317 127 0 127
-0.196954 0.075163 -0.304427 204 51 127
-0.099077 0.045459 -0.259684 153 0 76
-0.186481 0.518479 -0.433721 153 0 76
0.485391 -0.136688 0.231452 0 127 127
0.225779 -0.206998 0.603251 153 0 76
-0.447103 0.157215 -0.333376 204 51 127
-0.588382 -0.138481 0.273468 0 127 127
0.401743 -0.139296 0.426858 153 0 76
-0.289349 0.080561 -0.306332 204 51 127
0.469626 -0.061759 -0.162383 127 0 127
0.048342 -0.067766 -0.254000 204 51 127
-0.475307 -0.102670 -0.192046 127 0 127
0.548924 -0.194175 0.551829 153 0 76
0.169603 -0.218914 -0.018037 153 0 76
0.256872 0.458786 -0.411758 153 0 76
0.494331 0.403879 -0.420403 204 51 127
-0.136456 -0.218914 0.514757 153 0 76
-0.585295 -0.191711 0.460113 153 0 76
-0.375245 -0.136943 0.237423 0 127 127
-0.495607 -0.103753 -0.232799 127 0 127
0.173594 -0.117206 -0.090606 153 0 76
-0.302497 -0.141732 0.483916 153 0 76
-0.609265 -0.141268 0.473037 153 0 76
0.101975 -0.127817 0.023645 0 127 127
0.529688 -0.164863 0.608985 153 0 76
-0.626920 -0.218914 0.400790 153 0 76
-0.137817 -0.203427 -0.159342 153 0 76
-0.506087 -0.140456 0.233171 0 127 127
0.366106 0.204577 -0.350086 204 51 127
-0.326160 -0.139570 0.369985 0 127 127
-0.110587 0.409525 -0.393634 153 0 76
0.623510 -0.204676 0.356083 153 0 76
0.128316 -0.122984 -0.208273 153 0 76
-0.239778 0.522274 -0.462174 204 51 127
-0.532084 -0.218914 0.040909 153 0 76
-0.449832 0.339372 -0.397644 204 51 127
-0.563700 -0.218914 0.224460 153 0 76
0.298581 -0.148032 0.631481 153 0 76
0.337335 -0.218914 0.184077 153 0 76
0.169669 -0.137346 0.318719 0 127 127
-0.061570 -0.013134 -0.273275 204 51 127
-0.323773 0.040904 -0.258008 153 0 76
0.525957 -0.164863 0.507527 153 0 76
0.073752 -0.129052 0.052591 0 127 127
0.527244 -0.118674 -0.056218 153 0 76
0.208471 -0.046927 -0.217813 204 51 127
0.504084 -0.207448 0.418817 153 0 76
-0.182728 0.132032 -0.291537 153 0 76
-0.177570 -0.218914 0.426853 153 0 76
-0.293302 -0.137322 0.318168 0 127 127
0.442621 -0.207448 0.505299 153 0 76
-0.341375 -0.148650 0.645967 153 0 76
0.149900 0.429981 -0.429612 204 51 127
-0.605259 -0.164599 0.505222 153 0 76
-0.004300 -0.218914 0.440057 153 0 76
-0.079448 -0.127507 0.016389 0 127 127
-0.504370 -0.142929 0.377668 0 127 127
0.351391 -0.140537 0.455927 153 0 76
-0.629259 -0.140613 0.119465 153 0 76
-0.025708 -0.142243 0.446342 76 0 153
0.504159 -0.207448 0.453704 153 0 76
-0.449997 -0.114751 -0.220725 204 51 127
-0.233739 0.030612 -0.288709 204 51 127
-0.572917 0.057637 -0.298244 204 51 127
0.242293 -0.169838 -0.201620 153 0 76
0.536815 0.018428 -0.284410 204 51 127
0.297381 -0.118367 -0.063422 153 0 76
-0.317264 -0.147205 0.612118 153 0 76
-0.035431 0.240431 -0.331420 153 0 76
-0.442183 -0.128182 0.032217 0 127 127
-0.231873 0.394947 -0.388271 153 0 76
-0.066840 0.221438 -0.356035 204 51 127
-0.571402 -0.147703 0.623794 153 0 76
0.628119 -0.150963 0.275926 153 0 76
0.340417 0.084129 -0.273912 153 0 76
-0.388596 0.122290 -0.287952 153 0 76
0.251954 -0.117129 -0.092416 153 0 76
-0.434731 0.133902 -0.292225 153 0 76
-0.443132 -0.218914 0.348570 153 0 76
0.281592 -0.172472 0.631993 153 0 76
0.361053 -0.145022 0.560973 153 0 76
-0.627926 -0.191061 0.313010 153 0 76
-0.321040 -0.218914 0.039320 153 0 76
0.552170 -0.218914 0.500784 153 0 76
-0.228589 0.227806 -0.358282 204 51 127
0.589159 -0.013097 -0.273288 204 51 127
-0.034678 0.360086 -0.375444 153 0 76
-0.612467 -0.130236 -0.190787 153 0 76
0.488573 -0.164863 0.389379 0 127 127
-0.130174 -0.098113 -0.157504 127 0 127
-0.320677 0.446354 -0.407185 153 0 76
-0.085968 -0.024022 -0.234120 153 0 76
0.340391 0.577144 -0.481534 204 51 127
-0.581259 -0.192719 0.176659 153 0 76
0.394904 0.007972 -0.280721 204 51 127
0.040329 -0.161880 0.638135 153 0 76
-0.303835 -0.116339 -0.139070 127 0 127
-0.501808 0.187835 -0.312068 153 0 76
0.493778 -0.069177 -0.140423 127 0 127
-0.140975 -0.118279 -0.065472 153 0 76
0.288592 -0.146630 0.376265 0 127 127
-0.051507 -0.062317 -0.158313 127 0 127
-0.380555 0.423648 -0.398830 153 0 76
0.088444 -0.118975 -0.049170 153 0 76
-0.158388 0.091618 -0.310233 204 51 127
0.585445 -0.058692 -0.257201 204 51 127
0.557510 -0.145694 0.576721 153 0 76
-0.003289 0.563284 -0.443664 153 0 76
0.269413 -0.218914 0.562342 153 0 76
-0.025938 0.615660 -0.463049 0 0 255
-0.100948 -0.129276 0.132714 0 127 127
-0.102534 -0.094005 -0.240726 127 0 127
-0.323064 0.421072 -0.426469 204 51 127
-0.466704 -0.218914 0.408605 153 0 76
-0.508617 0.086035 -0.308263 204 51 127
-0.157739 -0.207635 0.602170 153 0 76
0.131454 -0.218914 0.246206 153 0 76
0.280725 -0.077050 -0.126833 127 0 127
0.487826 -0.149043 0.646213 153 0 76
0.559238 -0.218914 0.163256 153 0 76
0.414577 -0.132694 -0.143266 204 51 127
0.055107 0.372954 -0.409492 204 51 127
-0.178155 -0.030349 -0.231792 153 0 76
0.221317 0.461210 -0.440630 204 51 127
0.309453 -0.143249 0.519455 153 0 76
0.611263 -0.145522 0.572702 153 0 76
0.427103 -0.218914 -0.083183 153 0 76
-0.315529 -0.117339 -0.087497 153 0 76
-0.545847 0.135624 -0.325759 204 51 127
-0.283560 0.430340 -0.401292 153 0 76
-0.437644 -0.133532 0.157521 0 127 127
-0.413401 -0.218914 -0.023771 153 0 76
0.059146 -0.142165 0.530907 76 0 153
0.356390 -0.201874 0.402534 153 0 76
0.154843 -0.218914 0.030509 153 0 76
-0.316056 0.218526 -0.323360 153 0 76
-0.198871 0.220766 -0.324184 153 0 76
0.294654 -0.218914 0.268728 153 0 76
-0.250277 -0.143919 0.400847 0 127 127
-0.474418 -0.218592 0.568382 153 0 76
0.549233 -0.193263 0.467805 153 0 76
0.165339 0.524817 -0.436053 153 0 76
-0.291714 -0.214526 -0.131159 153 0 76
0.019780 -0.218914 0.226929 153 0 76
0.445028 -0.218914 -0.104297 153 0 76
-0.633290 -0.131459 0.213926 153 0 76
-0.585987 -0.026154 -0.268681 204 51 127
0.119635 0.027453 -0.287594 204 51 127
-0.545295 0.010906 -0.281756 204 51 127
-0.362726 -0.064874 -0.152199 127 0 127
0.395544 0.093641 -0.277412 153 0 76
0.443105 0.127650 -0.289924 153 0 76
0.395406 0.197760 -0.315720 153 0 76
0.596484 -0.001502 -0.234625 204 51 127
0.114125 -0.218914 0.433447 153 0 76
-0.509966 0.466217 -0.414493 153 0 76
0.503571 -0.145096 0.562708 153 0 76
-0.383930 0.163284 -0.303035 153 0 76
-0.626108 -0.136057 -0.146498 153 0 76
-0.386949 0.520919 -0.434619 153 0 76
0.038955 0.304399 -0.385305 204 51 127
0.433890 -0.135744 0.209356 0 127 127
0.401607 -0.143431 0.523721 153 0 76
-0.628019 -0.218914 0.432663 153 0 76
-0.314822 -0.218914 -0.107589 153 0 76
-0.206582 0.352545 -0.372669 153 0 76
-0.018049 -0.138828 0.195652 0 127 127
0.542422 -0.202827 0.589531 153 0 76
0.306942 0.176010 -0.307717 153 0 76
0.455707 0.031554 -0.254568 153 0 76
-0.187209 -0.198341 -0.168074 153 0 76
-0.373136 0.134937 -0.325516 204 51 127
0.395375 -0.218914 0.478751 153 0 76
0.383982 0.162917 -0.335388 204 51 127
-0.300022 0.311175 -0.357448 153 0 76
-0.373140 -0.055219 -0.202976 127 0 127
-0.006497 -0.129346 -0.210435 127 0 127
0.242430 0.023086 -0.251452 153 0 76
-0.019173 -0.136124 0.282157 0 127 127
-0.585312 -0.146151 0.587432 153 0 76
0.357540 -0.218914 0.062282 153 0 76
0.403938 0.642627 -0.473030 204 51 127
0.006903 -0.218914 0.072076 153 0 76
-0.041531 -0.134570 0.097493 0 127 127
0.305758 -0.218914 0.068938 153 0 76
-0.349739 -0.218914 0.099922 153 0 76
-0.003195 -0.123392 -0.031425 153 0 76
-0.563457 -0.136066 0.289209 0 127 127
-0.337008 0.019247 -0.284699 204 51 127
0.152009 -0.144627 0.502195 76 0 153
-0.282411 -0.218914 0.437758 153 0 76
0.252267 -0.119585 -0.034879 153 0 76
-0.484981 0.495527 -0.425277 153 0 76
-0.316879 0.492755 -0.424257 153 0 76
0.478771 -0.136719 -0.149691 127 0 127
0.520809 0.590375 -0.453691 204 51 127
-0.574861 -0.218914 -0.093451 153 0 76
-0.039919 -0.218914 0.360028 153 0 76
-0.451656 -0.218914 0.204008 153 0 76
0.088241 0.135180 -0.325602 204 51 127
-0.553555 -0.218914 0.445916 153 0 76
-0.175663 -0.218914 0.241665 153 0 76
-0.629259 -0.164738 0.479297 153 0 76
0.361822 0.520228 -0.461453 204 51 127
0.215882 -0.216651 -0.123228 153 0 76
0.418551 -0.218914 0.521585 153 0 76
-0.071928 0.317989 -0.359955 153 0 76
0.536121 -0.147954 0.629652 153 0 76
-0.002725 0.376591 -0.410776 204 51 127
0.047139 -0.127795 0.098572 0 127 127
-0.377947 0.469217 -0.415597 153 0 76
0.384312 -0.096911 -0.116906 127 0 127
0.429601 -0.164863 0.547118 153 0 76
-0.522089 -0.170332 0.632726 153 0 76
0.572653 0.613225 -0.462148 204 51 127
-0.074153 -0.218914 0.034125 153 0 76
0.034766 -0.218914 -0.019919 153 0 76
-0.234525 -0.218914 0.299609 153 0 76
-0.509909 -0.218914 0.489915 153 0 76
0.340001 -0.147231 0.612735 153 0 76
0.181991 -0.218914 0.432482 153 0 76
0.509143 0.180924 -0.341741 204 51 127
0.130331 -0.098908 -0.140203 127 0 127
-0.256281 0.344921 -0.369864 153 0 76
-0.221354 0.503309 -0.428140 153 0 76
0.563788 0.317353 -0.359721 153 0 76
0.373276 0.120608 -0.287333 153 0 76
0.141062 0.138683 -0.326838 204 51 127
0.475379 -0.118269 -0.065723 153 0 76
0.620684 -0.044409 -0.245157 204 51 127
-0.132946 -0.218914 0.031399 153 0 76
0.520037 -0.131387 0.054938 0 127 127
-0.526683 0.400821 -0.390432 153 0 76
0.549820 -0.135967 0.214565 0 127 127
0.237559 0.242423 -0.332153 153 0 76
0.196923 -0.133674 -0.138770 127 0 127
-0.282109 0.360015 -0.375418 153 0 76
-0.428856 -0.130883 -0.131818 127 0 127
-0.308061 -0.059510 -0.256913 204 51 127
-0.576545 -0.132877 0.142196 0 127 127
0.088332 -0.128079 0.105118 0 127 127
-0.430430 0.357569 -0.404064 204 51 127
-0.125563 -0.218914 0.555205 153 0 76
-0.190568 -0.218914 0.150059 153 0 76
-0.351400 0.084693 -0.274119 153 0 76
0.220995 -0.098973 -0.170745 127 0 127
-0.218274 -0.119236 -0.214356 153 0 76
-0.265867 -0.140177 0.447497 153 0 76
0.302495 -0.126383 -0.009937 0 127 127
0.076978 -0.170198 0.632772 153 0 76
-0.622293 0.554131 -0.473414 204 51 127
0.384661 0.438723 -0.404377 153 0 76
0.083926 -0.097272 -0.144556 127 0 127
-0.580590 -0.049886 -0.216718 127 0 127
-0.590646 -0.056500 -0.188590 204 51 127
-0.049409 0.502362 -0.427792 153 0 76
-0.447220 -0.139384 0.428904 153 0 76
0.229518 0.121745 -0.287752 153 0 76
-0.160519 -0.146912 0.555699 76 0 153
0.485893 0.376373 -0.381437 153 0 76
-0.035854 -0.218914 0.211801 153 0 76
0.066545 0.134108 -0.292300 153 0 76
0.134595 -0.131514 0.110264 0 127 127
0.004759 -0.217582 -0.117896 153 0 76
0.467190 -0.145809 0.579412 153 0 76
0.085532 0.517052 -0.460332 204 51 127
0.621118 -0.147534 0.619830 153 0 76
-0.385432 -0.162320 -0.207628 153 0 76
0.231369 -0.138143 0.179857 0 127 127
0.513757 0.646350 -0.474408 204 51 127
-0.103650 -0.187092 -0.183866 153 0 76
0.529329 -0.171646 0.365429 0 127 127
-0.007490 0.483342 -0.448439 204 51 127
0.500794 -0.218914 0.384187 153 0 76
-0.286337 -0.142666 0.505792 153 0 76
-0.499163 -0.116668 -0.103228 153 0 76
0.403576 -0.164863 0.378520 0 127 127
-0.350613 -0.218914 0.373150 153 0 76
-0.123304 0.360320 -0.405035 204 51 127
0.169370 -0.057429 -0.182186 127 0 127
-0.458392 0.359466 -0.375216 153 0 76
-0.584526 0.199797 -0.348400 204 51 127
-0.165766 0.408424 -0.393229 153 0 76
-0.318500 0.088089 -0.306882 204 51 127
-0.033345 -0.140335 0.230390 0 127 127
0.054393 -0.015821 -0.272327 204 51 127
-0.627859 -0.187163 0.014707 153 0 76
-0.363035 -0.218914 0.317587 153 0 76
0.530319 0.093619 -0.310939 204 51 127
-0.082237 -0.205999 -0.153922 153 0 76
-0.582718 -0.169822 0.312133 153 0 76
0.072745 0.180028 -0.309196 153 0 76
-0.185212 -0.142714 0.506904 153 0 76
-0.211129 0.471403 -0.444227 204 51 127
0.056304 -0.037605 -0.229012 153 0 76
-0.034906 -0.126859 0.001221 0 127 127
0.075783 -0.218914 0.183929 153 0 76
0.369421 -0.141408 0.269983 0 127 127
-0.221216 -0.100084 -0.187843 127 0 127
-0.418158 -0.132871 0.058342 0 127 127
-0.262778 -0.218914 0.393975 153 0 76
0.538258 -0.218914 0.144377 153 0 76
-0.424284 -0.218914 0.465183 153 0 76
-0.353058 0.481270 -0.447708 204 51 127
0.447211 -0.147865 -0.217238 153 0 76
0.053346 0.465741 -0.414318 153 0 76
-0.359058 -0.171367 0.632372 153 0 76
-0.298372 0.236326 -0.361288 204 51 127
0.369816 -0.126334 -0.122820 204 51 127
-0.460281 0.217213 -0.354544 204 51 127
0.354746 -0.139071 0.406762 153 0 76
-0.466827 -0.218914 -0.009489 153 0 76
0.628119 -0.166187 0.242323 153 0 76
-0.629259 -0.192373 0.082716 153 0 76
-0.332505 -0.144767 0.555017 153 0 76
-0.462297 0.463586 -0.441468 204 51 127
0.128467 -0.218914 0.396788 153 0 76
-0.167833 0.631129 -0.492601 204 51 127
-0.135263 0.452682 -0.437621 204 51 127
-0.078605 -0.218914 0.398479 153 0 76
-0.600490 -0.218914 0.376165 153 0 76
0.109112 -0.066702 -0.147019 127 0 127
0.308800 -0.218914 -0.017810 153 0 76
-0.597552 -0.073848 -0.251616 204 51 127
0.577692 -0.141939 0.267345 0 127 127
0.093145 0.491208 -0.423688 153 0 76
0.312442 -0.129562 0.139296 0 127 127
-0.464747 -0.039563 -0.228396 204 51 127
0.360380 0.334517 -0.366037 153 0 76
-0.398695 -0.218914 0.066562 153 0 76
0.577984 0.361691 -0.370720 204 51 127
0.078622 -0.138780 -0.222118 153 0 76
0.082566 0.476086 -0.445879 204 51 127
0.125192 -0.218914 0.081030 153 0 76
-0.629259 -0.216959 0.174575 153 0 76
-0.092954 -0.218914 0.357078 153 0 76
0.594131 0.091524 -0.310200 204 51 127
-0.602055 -0.066538 -0.147446 204 51 127
-0.325452 -0.135441 0.117582 0 127 127
-0.114142 0.212054 -0.352724 204 51 127
0.230074 -0.218914 0.155838 153 0 76
-0.575765 0.413555 -0.395918 153 0 76
0.224558 0.163339 -0.303055 153 0 76
-0.462869 0.310322 -0.357134 153 0 76
0.217335 -0.141394 0.476004 153 0 76
0.446583 -0.140774 0.270010 0 127 127
0.157374 0.529392 -0.464686 204 51 127
0.247369 -0.218914 0.367962 153 0 76
0.467735 -0.207448 0.515047 153 0 76
-0.255000 0.553778 -0.473290 204 51 127
-0.533962 0.353638 -0.402677 204 51 127
-0.605961 -0.165546 0.241057 153 0 76
0.389953 -0.218914 0.332934 153 0 76
0.433800 -0.164863 0.438488 153 0 76
0.619792 -0.210987 0.129353 153 0 76
0.082350 -0.144438 0.584149 153 76 0
-0.562393 0.528637 -0.437459 153 0 76
0.493636 -0.218914 0.051044 153 0 76
0.225759 -0.139980 0.308579 0 127 127
-0.172564 0.144123 -0.328757 204 51 127
0.040211 0.609606 -0.492987 204 51 127
-0.122357 0.419079 -0.425766 204 51 127
-0.082768 0.622355 -0.465527 204 51 127
0.366110 -0.105001 -0.191895 127 0 127
-0.555908 0.590003 -0.486070 204 51 127
0.371410 0.283459 -0.347251 153 0 76
0.559920 -0.138717 0.350324 0 127 127
-0.083171 -0.149643 0.619680 153 0 76
-0.227249 -0.218914 0.350651 153 0 76
0.593075 -0.164141 0.159163 153 0 76
-0.168491 0.538805 -0.441200 153 0 76
0.463540 0.116207 -0.318908 204 51 127
-0.637586 -0.137727 -0.196639 153 0 76
0.612111 -0.175512 0.630554 153 0 76
-0.614199 -0.155463 -0.033949 153 0 76
0.484098 0.351169 -0.372163 153 0 76
-0.544158 -0.218914 -0.047621 153 0 76
0.510364 -0.029913 -0.231952 153 0 76
-0.616901 -0.206272 0.485760 153 0 76
-0.573455 -0.191061 0.354222 153 0 76
0.597509 0.076042 -0.263326 204 51 127
0.600058 -0.218914 0.293519 153 0 76
-0.047413 -0.198262 -0.168208 153 0 76
-0.230791 -0.127435 0.014710 0 127 127
0.363288 -0.131863 0.118434 0 127 127
-0.239925 -0.118847 -0.052177 153 0 76
-0.340377 -0.116910 -0.097558 153 0 76
0.427380 -0.137287 0.317351 0 127 127
0.443144 -0.094276 -0.117348 204 51 127
0.506473 -0.218914 0.284948 153 0 76
0.620684 0.207701 -0.326220 204 51 127
-0.530299 -0.130552 0.162126 0 127 127
0.355354 -0.117995 -0.072138 153 0 76
0.620684 0.065412 -0.286409 204 51 127
0.522112 0.460892 -0.440518 204 51 127
-0.605116 -0.166339 0.282979 153 0 76
-0.362167 0.631158 -0.492588 204 51 127
0.024590 0.466141 -0.442370 204 51 127
-0.494236 -0.218914 0.547045 153 0 76
0.020507 -0.204696 0.606559 153 0 76
0.155737 0.156468 -0.300527 153 0 76
-0.135109 0.481487 -0.420111 153 0 76
-0.303371 -0.154320 -0.213174 153 0 76
0.579049 0.279643 -0.341785 204 51 127
0.131641 -0.141004 0.245802 0 127 127
-0.178037 0.352805 -0.372765 153 0 76
-0.494397 -0.218914 -0.062941 153 0 76
0.058536 -0.218914 0.282247 153 0 76
0.315777 -0.120509 -0.113921 127 0 127
0.628119 -0.199917 0.295373 153 0 76
-0.195292 0.129546 -0.323614 204 51 127
0.566326 0.407701 -0.421752 204 51 127
-0.044625 -0.218914 0.408233 153 0 76
0.500115 0.119007 -0.286744 153 0 76
-0.561311 -0.145429 0.570514 153 0 76
0.342296 0.275879 -0.375243 204 51 127
-0.553911 -0.218914 0.170271 153 0 76
-0.543503 -0.139834 0.439440 153 0 76
0.272000 -0.116357 -0.191157 153 0 76
-0.105435 -0.159712 0.641129 153 0 76
0.291665 -0.218914 0.352329 153 0 76
0.050430 0.180215 -0.341491 204 51 127
0.378872 -0.146734 0.601096 153 0 76
-0.427760 -0.137622 -0.183925 127 0 127
-0.296628 0.494177 -0.452261 204 51 127
-0.600520 -0.195081 0.562030 153 0 76
-0.228983 -0.218914 -0.004430 153 0 76
-0.262113 -0.126774 -0.138393 127 0 127
-0.031957 -0.114839 -0.220615 127 0 127
0.046849 -0.143190 0.296196 0 127 127
0.258213 0.592027 -0.454302 204 51 127
0.614210 -0.143144 0.516993 153 0 76
0.273179 0.147719 -0.297308 153 0 76
0.527401 0.374243 -0.409947 204 51 127
0.447046 -0.207448 0.439160 153 0 76
-0.273167 -0.218914 0.512674 153 0 76
0.479359 -0.143265 0.519819 153 0 76
0.072059 0.441265 -0.433593 204 51 127
0.571345 -0.172811 0.631852 153 0 76
0.449598 -0.218914 -0.052011 153 0 76
0.016497 -0.218914 0.313841 153 0 76
0.607218 -0.198165 -0.168373 153 0 76
0.292039 -0.218914 0.199224 153 0 76
-0.629259 -0.197706 -0.069910 153 0 76
-0.542959 -0.161257 -0.208478 153 0 76
-0.629259 -0.155477 0.229006 153 0 76
-0.383093 0.547541 -0.471089 204 51 127
0.193438 0.550522 -0.445511 153 0 76
0.097631 0.552464 -0.446226 153 0 76
-0.248080 -0.218914 -0.034408 153 0 76
-0.216773 -0.129597 0.050379 0 127 127
-0.127424 -0.140325 0.387390 0 127 127
-0.272116 0.430957 -0.429957 204 51 127
-0.328897 -0.218914 0.502976 153 0 76
-0.309936 -0.135642 0.206950 0 127 127
-0.373796 -0.196550 0.616043 153 0 76
-0.546985 -0.218914 0.313172 153 0 76
0.467162 0.480922 -0.447585 204 51 127
-0.411622 0.435487 -0.431555 204 51 127
-0.471987 0.173357 -0.339071 204 51 127
-0.038856 -0.143579 0.392881 0 127 127
0.155053 0.103509 -0.281042 153 0 76
0.619792 -0.204780 0.185269 153 0 76
0.277463 0.296645 -0.382569 204 51 127
0.363398 -0.144623 -0.218980 153 0 76
-0.278800 0.248469 -0.334377 153 0 76
-0.408838 -0.119610 -0.034305 153 0 76
0.329925 0.274194 -0.343842 153 0 76
-0.120125 0.493824 -0.452137 204 51 127
0.259946 -0.218914 0.423468 153 0 76
-0.579407 -0.218914 0.430018 153 0 76
0.522053 -0.164863 0.574957 153 0 76
0.126821 0.011768 -0.247288 153 0 76
-0.602078 -0.218914 0.137221 153 0 76
-0.477051 0.259617 -0.338479 153 0 76
0.397197 -0.123151 -0.117429 127 0 127
0.246791 -0.218914 0.292845 153 0 76
0.053732 -0.218914 -0.068566 153 0 76
-0.611534 -0.147736 0.624560 153 0 76
0.538318 -0.058563 -0.257247 204 51 127
-0.430697 -0.118711 -0.055357 153 0 76
-0.139461 0.617089 -0.463578 204 51 127
-0.056452 -0.129660 0.141560 0 127 127
-0.413483 -0.144578 -0.219003 153 0 76
-0.509580 0.069196 -0.268418 153 0 76
0.589981 -0.218914 0.150512 153 0 76
0.398107 -0.218914 0.020678 153 0 76
-0.080095 -0.218914 0.185380 153 0 76
0.549977 -0.211768 -0.139920 153 0 76
-0.264181 0.050628 -0.261586 153 0 76
-0.403892 -0.116745 -0.101402 153 0 76
0.195864 -0.169313 0.633075 153 0 76
-0.082675 0.471226 -0.416336 153 0 76
-0.588849 0.361250 -0.405363 204 51 127
-0.246137 -0.062672 -0.159122 127 0 127
0.616663 -0.082852 -0.122020 127 0 127
0.444833 -0.179703 0.600873 153 0 76
-0.601028 0.280010 -0.338819 204 51 127
0.452111 -0.181684 0.645147 153 0 76
0.247240 0.139467 -0.327115 204 51 127
-0.629259 -0.216673 0.568145 153 0 76
-0.629259 -0.166360 0.534803 153 0 76
0.487453 -0.169061 -0.202241 153 0 76
-0.297750 -0.218914 0.152298 153 0 76
0.271080 -0.218914 0.505328 153 0 76
0.531773 0.081127 -0.272807 153 0 76
-0.077675 0.262936 -0.339700 153 0 76
-0.093720 0.265808 -0.371690 204 51 127
0.482255 -0.137127 0.313672 0 127 127
0.212805 -0.146563 -0.217937 153 0 76
-0.169529 -0.218914 0.179734 153 0 76
0.288515 -0.145599 0.574495 153 0 76
0.093252 -0.161248 -0.208485 153 0 76
-0.337358 -0.218914 0.426546 153 0 76
0.039861 -0.013547 -0.237974 153 0 76
0.270752 0.344227 -0.399357 204 51 127
-0.354687 -0.038927 -0.264175 204 51 127
-0.437080 -0.053991 -0.215198 204 51 127
-0.009532 0.645804 -0.476439 204 51 127
0.435708 -0.055420 -0.199807 127 0 127
0.603952 -0.140860 0.342278 153 0 76
0.324339 -0.218914 0.485049 153 0 76
0.444190 -0.006667 -0.275557 204 51 127
-0.174840 -0.146223 0.589114 76 0 153
-0.078748 -0.103674 -0.232876 127 0 127
-0.501262 -0.061816 -0.162175 127 0 127
0.116592 0.170273 -0.305607 153 0 76
-0.118491 -0.218914 0.158510 153 0 76
-0.200380 -0.133021 0.145550 0 127 127
0.085511 -0.099207 -0.174349 127 0 127
-0.445725 -0.070294 -0.253108 204 51 127
-0.575263 0.322751 -0.362383 153 0 76
-0.629259 -0.191280 0.588817 153 0 76
0.362175 0.080219 -0.306211 204 51 127
-0.474478 -0.218914 -0.085778 153 0 76
-0.577851 -0.165546 0.236619 0 127 127
0.531400 -0.058242 -0.177465 127 0 127
0.549833 -0.164863 0.439148 153 0 76
0.198488 -0.218914 -0.032692 153 0 76
-0.261187 -0.056003 -0.192959 204 51 127
0.251026 -0.143016 0.513985 153 0 76
0.446615 -0.140975 0.402355 0 127 127
0.602454 -0.142593 0.379633 0 127 127
-0.419675 -0.134369 0.111113 0 127 127
-0.368401 -0.218914 0.204653 153 0 76
-0.445881 0.267968 -0.372452 204 51 127
-0.299339 -0.218914 0.558773 153 0 76
-0.111451 -0.139490 0.431393 153 0 76
-0.155676 0.559206 -0.475205 204 51 127
0.184773 -0.218914 0.532014 153 0 76
0.456008 -0.164863 0.370933 0 127 127
0.214521 0.536757 -0.467284 204 51 127
0.165356 0.557577 -0.474630 204 51 127
-0.162563 -0.095169 -0.117198 127 0 127
-0.263385 -0.171355 0.632375 153 0 76
0.253568 0.220453 -0.355688 204 51 127
0.481782 0.163894 -0.335733 204 51 127
-0.378941 0.308807 -0.386860 204 51 127
-0.025686 -0.010989 -0.238915 153 0 76
0.344212 -0.216682 -0.123105 153 0 76
0.370192 0.559785 -0.443245 204 51 127
-0.169434 -0.129810 0.070337 0 127 127
0.160489 0.620245 -0.464746 204 51 127
0.598790 0.171078 -0.338268 204 51 127
0.513519 0.445814 -0.406986 153 0 76
-0.360577 0.561103 -0.475874 204 51 127
-0.051915 -0.142128 0.443647 76 0 153
0.059109 -0.133992 -0.174163 204 51 127
-0.153558 -0.218914 0.332766 153 0 76
-0.542435 -0.147411 0.616938 153 0 76
-0.256107 -0.144768 0.555024 153 0 76
0.547392 0.627796 -0.493838 204 51 127
-0.192836 -0.123594 -0.118179 204 51 127
-0.564588 0.145940 -0.296654 153 0 76
0.440840 0.537270 -0.440635 204 51 127
-0.034142 -0.098118 -0.157577 127 0 127
-0.576944 -0.218914 0.258076 153 0 76
0.577198 -0.218914 0.334702 153 0 76
0.420561 0.103153 -0.280911 153 0 76
-0.261886 -0.218914 0.144304 153 0 76
-0.136273 -0.218914 0.391354 153 0 76
-0.629259 -0.177198 -0.106611 153 0 76
0.298495 -0.190231 -0.179905 153 0 76
0.408483 0.371414 -0.408949 204 51 127
0.393587 0.297466 -0.382859 204 51 127
-0.066350 -0.180317 0.628244 153 0 76
0.362165 0.484419 -0.421190 153 0 76
0.620684 0.531696 -0.463609 204 51 127
0.366692 -0.143197 0.383925 0 127 127
-0.417855 0.621813 -0.494972 204 51 127
-0.100790 0.299010 -0.352972 153 0 76
0.507405 -0.207448 0.508885 153 0 76
-0.457041 -0.017874 -0.271602 204 51 127
-0.487738 0.420560 -0.426288 204 51 127
-0.193095 0.558839 -0.475075 204 51 127
-0.501582 -0.218914 0.410391 153 0 76
0.158986 -0.218914 -0.069272 153 0 76
-0.080267 -0.218914 0.552658 153 0 76
0.383181 -0.164863 0.418014 0 127 127
-0.370301 0.588514 -0.453002 204 51 127
-0.233006 0.303022 -0.354448 153 0 76
-0.003299 -0.218914 0.271290 153 0 76
-0.211679 -0.145891 0.581328 153 0 76
-0.102047 -0.118609 -0.057739 153 0 76
0.065937 -0.139587 0.345098 0 127 127
0.258845 -0.113210 -0.139274 204 51 127
0.367171 0.384921 -0.384582 153 0 76
-0.436836 0.530706 -0.465150 204 51 127
0.449193 0.449335 -0.436441 204 51 127
-0.303761 -0.102664 -0.192047 127 0 127
-0.580169 -0.085872 -0.120139 127 0 127
-0.444571 0.464940 -0.414023 153 0 76
-0.016914 0.469135 -0.415566 153 0 76
-0.629259 -0.216967 0.300018 153 0 76
0.406462 -0.126817 0.000242 0 127 127
0.397557 -0.062384 -0.160102 127 0 127
-0.626762 -0.044512 -0.262204 204 51 127
-0.298841 -0.129762 0.143909 0 127 127
0.039310 0.077443 -0.305232 204 51 127
-0.209226 0.283992 -0.378105 204 51 127
-0.589017 -0.134886 0.189242 0 127 127
0.619792 -0.150722 0.183146 153 0 76
-0.144708 -0.099689 -0.181761 127 0 127
-0.532297 -0.218914 0.135238 153 0 76
0.144184 -0.149363 0.613130 153 0 76
0.628119 -0.178363 0.436163 153 0 76
0.257528 -0.218914 -0.004449 153 0 76
-0.529202 0.464430 -0.441766 204 51 127
-0.542948 -0.118406 -0.062503 153 0 76
0.481500 0.628836 -0.493544 204 51 127
-0.501872 0.155281 -0.332694 204 51 127
-0.581915 -0.195130 0.534670 153 0 76
0.187775 0.642743 -0.482734 204 51 127
-0.174323 -0.218914 0.520622 153 0 76
0.620684 -0.013971 -0.258395 204 51 127
0.211460 0.182433 -0.342274 204 51 127
-0.488286 -0.041859 -0.263140 204 51 127
0.025442 -0.055154 -0.204777 204 51 127
0.089961 -0.055457 -0.199263 127 0 127
0.066839 0.595390 -0.455547 0 0 255
0.141624 -0.167097 -0.203811 153 0 76
0.507414 -0.133565 0.158303 0 127 127
0.430894 -0.218914 0.250570 153 0 76
0.106172 -0.135440 -0.194048 204 51 127
-0.411199 0.486191 -0.449444 204 51 127
0.108610 -0.218914 0.190530 153 0 76
0.064264 0.502133 -0.427707 153 0 76
0.267181 -0.218914 0.111743 153 0 76
0.586568 -0.082770 -0.247630 204 51 127
0.608983 -0.122064 -0.124608 153 0 76
-0.346009 -0.142764 0.508085 153 0 76
0.398616 -0.218914 -0.084706 153 0 76
0.577099 -0.119007 -0.111948 153 0 76
0.402873 -0.214428 0.588335 153 0 76
0.046851 -0.140956 0.244694 0 127 127
-0.212798 0.028440 -0.253422 153 0 76
0.251165 0.474005 -0.445145 204 51 127
-0.533418 -0.055892 -0.194036 204 51 127
0.064071 0.226537 -0.357834 204 51 127
0.232117 -0.049665 -0.260386 204 51 127
-0.385055 -0.137396 0.319864 0 127 127
0.348510 -0.134394 -0.156272 204 51 127
-0.564399 0.369280 -0.378827 153 0 76
0.550501 -0.182378 0.605119 153 0 76
-0.626959 -0.195129 0.535433 153 0 76
0.094920 -0.141971 0.268094 0 127 127
0.029634 -0.141527 0.515944 76 0 153
-0.098541 -0.111702 -0.118508 153 0 76
0.388137 -0.145156 0.564115 153 0 76
0.169257 0.462309 -0.413055 153 0 76
0.201831 0.452129 -0.409309 153 0 76
-0.429551 0.024306 -0.251901 153 0 76
0.591719 0.248670 -0.365643 204 51 127
0.619792 -0.174349 0.103626 153 0 76
-0.140019 0.015564 -0.283400 204 51 127
0.415584 0.306314 -0.355660 153 0 76
-0.000886 0.271704 -0.373770 204 51 127
-0.473211 -0.164584 -0.205819 153 0 76
0.362564 -0.218914 0.172331 153 0 76
0.481480 -0.218914 0.186472 153 0 76
0.088657 -0.146341 0.368827 0 127 127
0.600382 -0.132000 0.127179 0 127 127
0.620684 0.272727 -0.346877 204 51 127
0.396125 -0.168217 0.646213 153 0 76
0.345675 0.618788 -0.494957 204 51 127
0.500582 -0.146923 -0.217744 153 0 76
0.322041 0.136129 -0.293044 153 0 76
-0.610384 -0.218914 0.036692 153 0 76
0.409884 -0.140340 0.451298 153 0 76
0.613494 0.323075 -0.354758 204 51 127
-0.144183 0.172791 -0.338872 204 51 127
-0.057936 -0.138802 0.415276 153 0 76
-0.472999 -0.105738 -0.139759 127 0 127
0.011176 0.429407 -0.400949 153 0 76
-0.070594 -0.218914 0.451195 153 0 76
-0.621077 0.080300 -0.264902 204 51 127
0.347697 0.299630 -0.383623 204 51 127
0.222417 -0.131077 -0.188117 204 51 127
0.556186 0.102090 -0.280520 153 0 76
0.204561 0.624204 -0.494648 204 51 127
0.091507 -0.218914 0.477111 153 0 76
0.390687 0.261320 -0.339105 153 0 76
0.387706 -0.135646 -0.193350 127 0 127
-0.629259 -0.194543 0.215557 153 0 76
0.187061 -0.218914 0.065253 153 0 76
-0.510955 -0.137701 0.326892 0 127 127
0.016908 -0.218914 0.538474 153 0 76
-0.291259 -0.218914 0.094901 153 0 76
0.021943 0.142257 -0.295299 153 0 76
-0.628367 0.100234 -0.301384 204 51 127
-0.628367 0.051015 -0.283886 204 51 127
0.398066 -0.218914 0.428413 153 0 76
-0.520325 -0.144076 0.538813 153 0 76
0.563161 0.580972 -0.450210 204 51 127
-0.247126 0.267771 -0.372382 204 51 127
-0.607409 -0.206205 0.522878 153 0 76
0.622829 -0.117598 -0.081427 153 0 76
0.190849 0.275159 -0.344197 153 0 76
-0.451832 0.039331 -0.291785 204 51 127
0.553342 -0.218914 0.031071 153 0 76
-0.472599 -0.139181 0.424160 153 0 76
0.358221 -0.126026 -0.018305 153 0 76
-0.521660 -0.218914 -0.020605 153 0 76
0.455618 0.337393 -0.367095 153 0 76
0.032874 -0.139920 0.441470 76 0 153
0.008290 -0.149589 0.618424 153 0 76
0.309632 -0.218871 -0.110436 153 0 76
-0.575443 -0.218914 0.459697 153 0 76
-0.039430 -0.218914 -0.089449 153 0 76
0.507392 -0.125794 -0.023729 153 0 76
0.158578 -0.126914 0.002515 0 127 127
-0.618855 -0.136576 0.262032 0 127 127
-0.595053 0.552844 -0.472960 204 51 127
-0.288828 -0.162150 0.637761 153 0 76
0.100318 0.603989 -0.458729 204 51 127
-0.372410 0.347161 -0.370689 153 0 76
-0.295741 -0.096821 -0.116921 127 0 127
0.155787 -0.218914 0.199823 153 0 76
-0.071752 -0.218914 0.267043 153 0 76
-0.573069 -0.126385 -0.009877 0 127 127
0.230153 0.431566 -0.430171 204 51 127
-0.366450 -0.138015 0.262552 0 127 127
0.219906 0.123475 -0.321472 204 51 127
-0.280988 -0.218914 0.411940 153 0 76
0.393249 -0.218914 -0.036531 153 0 76
-0.605852 -0.132606 0.138407 0 127 127
-0.093689 -0.150007 -0.216021 153 0 76
0.210113 -0.126884 0.077580 0 127 127
-0.401895 0.139505 -0.327128 204 51 127
-0.354399 0.300691 -0.353591 153 0 76
0.496966 -0.142158 0.493898 153 0 76
0.352050 -0.218914 -0.098714 153 0 76
-0.502877 -0.141298 0.473744 153 0 76
0.277966 -0.126822 0.000350 0 127 127
-0.574027 0.643984 -0.473532 204 51 127
-0.355806 0.195576 -0.314916 153 0 76
-0.113990 0.200942 -0.316890 153 0 76
-0.300902 -0.218914 0.330648 153 0 76
-0.409875 -0.218914 0.244048 153 0 76
-0.260381 -0.200372 -0.164637 153 0 76
0.306345 0.341053 -0.398237 204 51 127
-0.285392 0.010537 -0.246835 153 0 76
0.406746 0.058102 -0.298408 204 51 127
0.196517 0.165697 -0.303923 153 0 76
0.364115 -0.142057 0.491535 153 0 76
0.618861 0.036947 -0.248856 204 51 127
0.551654 -0.132728 0.055039 0 127 127
0.139462 -0.072806 -0.132326 127 0 127
-0.147454 0.360641 -0.375648 153 0 76
-0.626866 -0.169822 0.359816 153 0 76
-0.395043 -0.139351 0.428143 153 0 76
0.554776 -0.128451 -0.196454 153 0 76
-0.288800 0.217806 -0.323095 153 0 76
-0.246177 -0.143323 0.299251 0 127 127
-0.379678 -0.112559 -0.223459 127 0 127
-0.628367 -0.086045 -0.179341 127 0 127
0.299851 -0.211172 0.595905 153 0 76
-0.178539 -0.138196 0.181084 0 127 127
-0.493549 0.623648 -0.466006 204 51 127
0.607519 0.129105 -0.282965 204 51 127
0.013954 0.063584 -0.266352 153 0 76
0.075433 -0.218914 0.427685 153 0 76
0.293205 -0.141264 0.472950 153 0 76
-0.451882 0.215180 -0.322129 153 0 76
0.358691 0.359649 -0.404798 204 51 127
0.007550 0.198425 -0.315964 153 0 76
0.321911 0.558005 -0.448054 153 0 76
-0.208146 0.532156 -0.465661 204 51 127
0.431592 -0.184105 -0.187305 153 0 76
0.534958 0.394365 -0.388056 153 0 76
0.159466 -0.215939 -0.125887 153 0 76
-0.000057 0.348167 -0.400747 204 51 127
-0.511483 0.136489 -0.293176 153 0 76
-0.475604 -0.139182 0.282017 0 127 127
0.443411 -0.140456 0.454022 153 0 76
-0.620661 -0.189294 0.157199 153 0 76
-0.308087 -0.103911 -0.232646 204 51 127
-0.210605 0.314248 -0.358579 153 0 76
0.144082 0.455023 -0.438447 204 51 127
-0.112782 -0.137791 0.257308 0 127 127
-0.476995 -0.121734 -0.115530 204 51 127
0.193479 0.208913 -0.319823 153 0 76
-0.144519 0.262568 -0.370547 204 51 127
0.312036 0.474101 -0.445178 204 51 127
-0.586273 -0.145656 -0.218425 153 0 76
0.321879 -0.136471 -0.148341 127 0 127
-0.257786 0.160224 -0.334438 204 51 127
0.345793 -0.218914 0.501662 153 0 76
-0.531675 0.031086 -0.288876 204 51 127
-0.351978 0.320782 -0.391085 204 51 127
-0.134336 -0.041005 -0.263441 204 51 127
0.529210 -0.218914 0.097504 153 0 76
0.507983 -0.207448 0.624046 153 0 76
0.198470 -0.218914 0.172319 153 0 76
-0.628367 0.582647 -0.462078 204 51 127
-0.337130 -0.029547 -0.232087 153 0 76
-0.508289 -0.134109 -0.198566 127 0 127
0.432992 0.609569 -0.492974 204 51 127
-0.444961 -0.218914 0.545510 153 0 76
0.628119 -0.149493 0.413048 153 0 76
0.300615 0.425241 -0.399417 153 0 76
-0.399416 -0.131874 0.192584 0 127 127
-0.557637 0.268303 -0.341674 153 0 76
-0.037640 -0.218914 -0.041769 153 0 76
-0.439156 -0.144337 0.322625 0 127 127
0.165763 -0.138810 0.415458 153 0 76
0.197263 -0.128794 -0.195364 127 0 127
-0.478766 -0.067880 -0.143952 127 0 127
0.190108 0.289057 -0.379892 204 51 127
-0.399814 -0.128086 -0.197350 204 51 127
0.385684 -0.218914 0.502111 153 0 76
0.113746 0.571666 -0.479601 204 51 127
-0.023905 -0.142202 0.531756 76 0 153
0.187625 -0.055294 -0.201627 204 51 127
-0.126867 0.255217 -0.336860 153 0 76
-0.521083 -0.126063 -0.017433 0 127 127
0.587059 -0.128639 -0.226529 153 0 76
-0.026272 0.534072 -0.466337 204 51 127
0.384974 -0.182677 0.598615 153 0 76
-0.443847 -0.062087 -0.161185 204 51 127
0.557738 0.039511 -0.257495 153 0 76
0.504117 -0.218914 0.174639 153 0 76
0.444136 0.484104 -0.421074 153 0 76
-0.612220 -0.139570 0.433267 153 0 76
-0.290827 -0.126681 -0.200424 127 0 127
-0.284362 -0.218914 -0.044110 153 0 76
-0.446653 -0.218914 0.296008 153 0 76
0.324328 0.516565 -0.433017 153 0 76
-0.095999 0.098487 -0.279195 153 0 76
0.230795 -0.117714 -0.078716 153 0 76
0.213448 0.498479 -0.426363 153 0 76
-0.333121 -0.218914 0.219796 153 0 76
0.152299 0.571649 -0.446760 204 51 127
-0.100338 -0.130715 0.165871 0 127 127
-0.424770 -0.127026 0.005128 0 127 127
0.267166 0.435783 -0.431659 204 51 127
-0.225387 -0.105540 -0.139772 127 0 127
-0.405614 0.541152 -0.442063 153 0 76
-0.424538 0.180918 -0.341739 204 51 127
0.287667 -0.218914 0.449471 153 0 76
-0.554657 -0.064372 -0.153649 127 0 127
0.477527 0.553884 -0.473327 204 51 127
0.249237 0.090627 -0.309883 204 51 127
0.565130 -0.099348 -0.236681 127 0 127
0.152619 -0.218914 0.480187 153 0 76
-0.510561 -0.138896 0.283180 0 127 127
-0.432161 -0.102730 -0.233795 204 51 127
0.466867 -0.164863 0.420925 0 127 127
0.529386 -0.218914 0.063230 153 0 76
-0.137813 -0.218914 0.128302 153 0 76
-0.143336 -0.218914 0.482017 153 0 76
0.488475 -0.009565 -0.274534 204 51 127
-0.314591 0.354989 -0.403154 204 51 127
0.150810 -0.001909 -0.277235 204 51 127
-0.444725 0.520008 -0.434284 153 0 76
0.480857 -0.120955 -0.211565 153 0 76
0.444474 -0.065666 -0.149917 204 51 127
0.153822 0.212173 -0.352766 204 51 127
0.441581 -0.164863 0.507847 153 0 76
0.021981 0.237572 -0.361727 204 51 127
-0.121233 -0.218914 0.459636 153 0 76
-0.186322 0.464644 -0.413914 153 0 76
0.477612 -0.140101 0.445703 153 0 76
-0.628367 -0.101720 -0.120152 127 0 127
0.410048 0.110850 -0.317018 204 51 127
0.454122 -0.135609 -0.145043 127 0 127
0.213708 0.402649 -0.419969 204 51 127
-0.095240 -0.218914 0.434176 153 0 76
-0.084329 -0.138727 0.413513 153 0 76
0.606332 -0.135236 0.217257 153 0 76
-0.116789 -0.216209 -0.124879 153 0 76
-0.196187 -0.218914 0.190797 153 0 76
0.325800 0.407355 -0.392835 153 0 76
0.618606 -0.120281 -0.031292 153 0 76
0.453504 -0.218914 0.356331 153 0 76
-0.043319 -0.148606 0.614884 153 0 76
0.270395 -0.110586 -0.225921 204 51 127
0.431531 -0.014748 -0.237532 153 0 76
0.619792 -0.160627 -0.105533 153 0 76
0.045723 -0.135394 -0.144347 204 51 127
0.472484 -0.218914 0.374765 153 0 76
-0.158791 -0.214964 -0.129525 153 0 76
0.168997 0.243936 -0.332709 153 0 76
0.140292 0.540354 -0.441770 153 0 76
0.518145 -0.066931 -0.146422 127 0 127
0.620684 0.486358 -0.440367 204 51 127
0.324239 -0.145191 0.564938 153 0 76
-0.431876 0.259659 -0.338494 153 0 76
-0.142003 -0.170622 -0.200994 153 0 76
0.073076 0.645538 -0.477251 204 51 127
-0.233345 -0.140020 0.380345 0 127 127
-0.455790 0.514259 -0.459347 204 51 127
-0.213041 -0.137786 0.257189 0 127 127
0.011263 -0.015087 -0.237407 153 0 76
0.289861 0.015893 -0.283516 204 51 127
0.385439 -0.136711 0.196021 0 127 127
0.101220 -0.133092 0.147229 0 127 127
0.525254 -0.141376 0.341270 0 127 127
-0.167626 -0.218914 0.468570 153 0 76
0.619792 -0.205945 -0.026067 153 0 76
-0.237853 -0.218914 0.151284 153 0 76
-0.594623 -0.118109 -0.069453 153 0 76
-0.324502 0.195147 -0.314758 153 0 76
0.514312 -0.127940 0.026537 0 127 127
-0.026508 0.517391 -0.433321 153 0 76
-0.336175 -0.097323 -0.116837 204 51 127
0.499099 -0.164863 0.590602 153 0 76
0.619792 -0.157758 -0.011917 153 0 76
0.496671 -0.218914 -0.016852 153 0 76
0.421246 0.186211 -0.343607 204 51 127
0.437034 0.278332 -0.345365 153 0 76
-0.029822 -0.131207 -0.190193 204 51 127
-0.629259 -0.158388 0.401669 153 0 76
-0.628367 0.326798 -0.383536 204 51 127
-0.115624 -0.218914 0.290599 153 0 76
-0.264658 -0.128465 0.038837 0 127 127
-0.617988 0.125287 -0.281553 204 51 127
0.176052 0.586006 -0.452074 204 51 127
-0.505315 -0.218914 0.089646 153 0 76
0.383431 -0.164863 0.489765 153 0 76
0.281004 -0.139178 0.424083 153 0 76
0.596880 0.546229 -0.470626 204 51 127
-0.358204 -0.138829 0.219324 0 127 127
-0.461521 -0.218914 0.509822 153 0 76
0.382813 -0.133411 0.070788 0 127 127
-0.604557 -0.116537 -0.106293 153 0 76
0.088371 0.367242 -0.378077 153 0 76
-0.071720 0.133075 -0.324859 204 51 127
-0.459042 0.546484 -0.444025 153 0 76
-0.044988 0.247384 -0.365189 204 51 127
0.289014 0.108774 -0.282979 153 0 76
-0.078595 0.404026 -0.420455 204 51 127
-0.027740 -0.218914 0.280430 153 0 76
0.610477 0.229571 -0.358905 204 51 127
0.017380 -0.138609 0.276471 0 127 127
-0.145112 -0.218914 0.429047 153 0 76
0.556517 -0.129398 0.135515 0 127 127
0.145070 0.304011 -0.354813 153 0 76
0.062701 -0.149611 0.618927 153 0 76
-0.209280 0.628338 -0.467741 204 51 127
-0.628367 0.011383 -0.261487 204 51 127
0.360131 -0.164863 0.373248 0 127 127
-0.308158 0.595478 -0.455579 204 51 127
0.612154 -0.134291 -0.154702 127 0 127
-0.582147 -0.186784 0.275562 153 0 76
0.488201 0.555409 -0.445291 204 51 127
-0.555969 -0.126532 -0.200750 204 51 127
0.038445 0.625836 -0.462268 0 0 255
0.546529 -0.218914 0.542774 153 0 76
-0.134261 -0.134882 0.189151 0 127 127
0.291303 0.231092 -0.327984 153 0 76
-0.614071 -0.112222 -0.223880 153 0 76
0.442172 -0.108138 -0.139603 127 0 127
0.323972 -0.103680 -0.191981 127 0 127
-0.095638 0.317754 -0.390017 204 51 127
0.381982 -0.207448 0.372466 153 0 76
0.205366 -0.218914 -0.070821 153 0 76
-0.166822 -0.075669 -0.250844 127 0 127
0.050092 -0.207476 -0.150811 153 0 76
0.423935 -0.218914 -0.002096 153 0 76
0.092365 -0.009088 -0.239615 153 0 76
0.177778 -0.134928 0.262996 0 127 127
0.200256 -0.060990 -0.165187 127 0 127
-0.033270 0.001862 -0.278565 204 51 127
0.434598 0.322359 -0.391642 204 51 127
0.594432 -0.028063 -0.224795 204 51 127
0.178641 0.147570 -0.297253 153 0 76
0.576435 0.060351 -0.299201 204 51 127
-0.604847 -0.218914 -0.044952 153 0 76
-0.328516 -0.068749 -0.141652 204 51 127
-0.213737 -0.058689 -0.175273 127 0 127
-0.503005 0.610354 -0.493251 204 51 127
0.113028 -0.218914 0.222342 153 0 76
0.016637 0.283979 -0.347442 153 0 76
-0.324643 -0.147495 0.395404 0 127 127
0.416052 -0.164863 0.493974 153 0 76
0.256602 0.387616 -0.414665 204 51 127
-0.558277 -0.096960 -0.116898 204 51 127
0.539312 0.201127 -0.316958 153 0 76
0.601623 -0.202211 0.032856 153 0 76
0.148990 -0.218914 0.166005 153 0 76
0.106023 0.346535 -0.400171 204 51 127
-0.053412 -0.128890 0.049850 0 127 127
0.120388 -0.201122 0.611261 153 0 76
-0.132326 0.588184 -0.485429 204 51 127
-0.603035 0.509047 -0.457508 204 51 127
-0.572833 -0.125165 -0.227274 153 0 76
-0.464975 0.446547 -0.407256 153 0 76
-0.449317 -0.142821 0.375122 0 127 127
-0.124416 -0.136791 -0.150083 127 0 127
0.414402 -0.141066 0.404472 0 127 127
0.628119 -0.122874 0.011402 153 0 76
-0.377648 -0.126130 -0.122475 153 0 76
-0.508706 0.389541 -0.415344 204 51 127
-0.482446 0.339900 -0.397831 204 51 127
-0.316958 -0.218914 0.193153 153 0 76
-0.262224 -0.147146 0.610744 153 0 76
-0.415758 0.430994 -0.401533 153 0 76
-0.285532 0.573036 -0.480084 204 51 127
0.178240 -0.110057 -0.139478 127 0 127
0.602283 0.616872 -0.463498 204 51 127
0.327617 0.427640 -0.428787 204 51 127
0.017127 -0.126500 -0.200820 204 51 127
0.133474 0.411349 -0.423038 204 51 127
-0.100405 0.352516 -0.372659 153 0 76
-0.466587 -0.218914 0.356250 153 0 76
-0.604811 -0.186331 0.198792 153 0 76
-0.495862 -0.128169 0.031913 0 127 127
-0.339598 -0.140228 0.319969 0 127 127
0.584559 -0.118523 -0.059751 153 0 76
-0.200602 -0.117780 -0.077174 153 0 76
-0.606029 0.546005 -0.437269 204 51 127
0.449963 -0.135365 0.115829 0 127 127
-0.234312 -0.211047 -0.141882 153 0 76
-0.061706 -0.109293 -0.191616 127 0 127
0.554528 0.269659 -0.342173 153 0 76
-0.460006 0.396931 -0.417952 204 51 127
-0.584391 0.600676 -0.457503 204 51 127
0.119442 -0.218914 0.022099 153 0 76
-0.455039 -0.201947 -0.161974 153 0 76
-0.530370 -0.059066 -0.257069 204 51 127
-0.322760 -0.134786 0.259721 0 127 127
-0.485425 -0.181997 -0.189732 153 0 76
-0.367901 -0.130862 -0.206887 204 51 127
0.390973 -0.075945 -0.127989 127 0 127
0.419011 -0.218914 0.447008 153 0 76
0.378032 0.590849 -0.453866 204 51 127
0.545852 0.557208 -0.474500 204 51 127
0.439228 -0.144887 0.557809 153 0 76
-0.368970 0.515820 -0.459897 204 51 127
0.234466 -0.218914 0.464116 153 0 76
0.285369 -0.143238 0.297304 0 127 127
-0.182231 -0.143277 0.298186 0 127 127
0.149029 -0.118725 -0.055033 153 0 76
-0.079065 0.176599 -0.340215 204 51 127
0.277136 0.058476 -0.298540 204 51 127
0.401520 0.479533 -0.447095 204 51 127
-0.222465 0.370730 -0.408708 204 51 127
0.314050 -0.134503 -0.197230 127 0 127
-0.259308 -0.218914 0.061148 153 0 76
0.113488 0.056365 -0.297795 204 51 127
0.619792 -0.139270 -0.070268 153 0 76
-0.369532 0.602095 -0.490337 204 51 127
-0.508795 -0.218914 0.365206 153 0 76
0.284964 -0.071091 -0.252785 204 51 127
-0.607196 0.376639 -0.410792 204 51 127
0.317128 -0.218914 0.234797 153 0 76
-0.000823 0.019793 -0.250240 153 0 76
0.398172 -0.098735 -0.167079 127 0 127
-0.187338 -0.095537 -0.117136 127 0 127
-0.564502 -0.218914 0.551329 153 0 76
0.521974 0.407812 -0.421791 204 51 127
0.042820 -0.218788 0.565074 153 0 76
-0.015880 -0.140577 0.313025 0 127 127
0.150852 -0.138739 -0.172301 127 0 127
0.455839 0.543076 -0.469514 204 51 127
0.508202 0.334811 -0.366145 153 0 76
0.025332 0.058437 -0.298526 204 51 127
-0.242653 0.458444 -0.411633 153 0 76
