ply
format ascii 1.0
element vertex 1262
property float x
property float y
property float z
property uchar red
property uchar green
property uchar blue
end_header
-0.150607 0.786620 -0.134039 204 51 127
-0.355419 -0.377657 0.046346 76 0 153
-0.296470 0.264620 0.339713 76 0 153
0.346593 0.267421 -0.078090 76 0 153
-0.129240 0.787079 -0.163738 204 51 127
-0.186744 -0.676838 -0.171713 153 0 76
0.380486 0.783939 -0.070706 204 51 127
-0.418217 0.634559 0.262905 204 51 127
0.037169 0.722201 -0.423429 255 0 0
-0.231402 0.786563 -0.258349 204 51 127
0.028399 -0.360248 -0.300111 76 0 153
0.346593 0.167002 -0.250393 76 0 153
0.027983 0.697024 -0.368595 204 51 127
-0.061624 0.165293 0.330244 76 0 153
-0.338912 -0.685934 -0.147764 76 0 153
-0.003792 -0.670428 -0.222924 153 0 76
0.340952 -0.493824 -0.298624 76 0 153
0.256704 -0.189817 -0.300111 76 0 153
-0.073729 -0.814016 -0.195439 153 0 76
-0.355419 -0.319996 0.185965 76 0 153
0.347592 -0.429508 -0.207756 76 0 153
0.347514 -0.652623 -0.055494 76 0 153
0.253867 0.786560 -0.270573 204 51 127
0.162458 -0.913602 -0.047983 153 0 76
0.149303 0.771606 0.051271 204 51 127
-0.316001 0.588105 0.371240 76 0 153
0.367899 0.738070 -0.366358 255 0 0
0.347592 0.026940 0.129291 76 0 153
0.255568 -0.238152 -0.300111 76 0 153
0.239104 0.771728 0.064186 204 51 127
0.169253 -0.229992 -0.300111 76 0 153
0.069247 -0.722982 -0.098859 153 0 76
0.247051 -0.909740 -0.061011 153 0 76
-0.285901 0.447660 0.357622 76 0 153
-0.355419 0.282759 0.044434 76 0 153
0.348705 0.608713 -0.263360 76 0 153
-0.119494 0.782906 -0.056291 204 51 127
-0.198281 -0.279695 -0.300111 76 0 153
-0.355419 -0.374879 -0.141980 76 0 153
0.047301 0.782497 -0.295267 204 51 127
-0.110085 0.243168 -0.300111 76 0 153
-0.444365 0.696742 -0.167535 204 51 127
0.008962 0.340904 0.347274 76 0 153
0.346593 0.377176 0.005509 76 0 153
-0.027394 0.001382 0.314348 76 0 153
-0.273451 -0.749705 -0.141462 76 0 153
0.347801 0.603474 0.226096 76 0 153
-0.020208 0.599617 0.372556 76 0 153
0.347592 0.160057 0.220711 76 0 153
0.346593 0.338627 -0.207995 76 0 153
-0.355419 0.516135 -0.113646 76 0 153
0.112929 0.735067 0.238245 204 51 127
0.365492 0.631981 -0.017690 204 51 127
-0.280421 -0.873903 -0.204074 76 0 153
-0.003805 -0.684892 -0.150768 153 0 76
0.217346 -0.331623 -0.300111 76 0 153
0.346593 0.357672 0.145424 76 0 153
-0.110441 -0.765918 -0.070217 153 0 76
-0.202952 0.282976 0.341493 76 0 153
-0.355419 0.003826 0.262957 76 0 153
-0.347741 -0.690884 0.241084 76 0 153
0.344003 -0.788050 -0.295447 153 76 0
-0.332151 -0.625309 0.252614 76 0 153
0.100091 -0.796867 -0.060453 153 0 76
0.436359 0.660941 0.106224 204 51 127
-0.347799 -0.292001 -0.298934 76 0 153
0.411447 0.780096 -0.308417 204 51 127
0.347592 -0.871250 0.169139 76 0 153
-0.407473 0.707763 0.333831 204 51 127
-0.355419 0.564964 0.217564 76 0 153
0.377499 0.634587 -0.140131 204 51 127
-0.256951 -0.839872 -0.242990 76 0 153
-0.072036 -0.311247 0.283375 76 0 153
-0.058162 -0.128949 -0.300111 76 0 153
-0.217644 -0.535563 -0.300111 76 0 153
0.347483 0.183290 0.159215 76 0 153
-0.329316 -0.750301 0.240424 76 0 153
-0.150276 0.703809 -0.364152 255 0 0
0.303962 -0.378232 -0.300111 76 0 153
-0.083263 -0.197532 -0.300111 76 0 153
-0.272586 0.688744 0.404802 204 51 127
0.060548 -0.225515 0.291343 76 0 153
0.345921 -0.208521 0.283932 76 0 153
0.257015 -0.825822 -0.124059 153 76 0
0.202624 0.190568 0.332695 76 0 153
-0.094580 -0.911284 -0.057205 153 0 76
0.280833 -0.089444 -0.300111 76 0 153
0.346593 0.371703 0.095042 76 0 153
-0.282479 -0.893162 -0.185112 76 0 153
0.102966 0.402125 0.353211 76 0 153
0.367271 0.632862 -0.041150 204 51 127
-0.215694 -0.458254 0.268778 76 0 153
-0.353532 -0.353031 -0.293299 76 0 153
-0.286152 -0.079562 -0.300111 76 0 153
-0.355419 -0.674121 0.144306 76 0 153
-0.187549 0.199931 0.333603 76 0 153
-0.024126 0.736074 0.234900 204 51 127
-0.355419 0.382929 -0.070865 76 0 153
-0.444317 0.714118 0.190360 204 51 127
0.267496 0.668417 0.450508 204 51 127
0.347067 0.292482 0.328325 76 0 153
0.346659 -0.675352 0.101677 76 0 153
0.346593 0.216748 -0.053490 76 0 153
-0.355419 0.009821 -0.251554 76 0 153
0.189661 -0.383812 -0.300111 76 0 153
0.196308 0.429783 -0.300111 76 0 153
0.344670 -0.839125 -0.205737 153 76 0
0.179790 -0.258627 0.288183 76 0 153
0.028081 -0.763958 -0.071317 153 0 76
0.347572 -0.385937 0.038550 76 0 153
-0.308081 -0.656918 0.249514 76 0 153
-0.343593 -0.883659 -0.103797 76 0 153
0.367014 0.736691 0.232479 204 51 127
0.347414 0.599913 0.253964 76 0 153
-0.160710 -0.770784 -0.068184 153 0 76
-0.355419 0.210774 -0.253587 76 0 153
-0.287488 0.413453 0.354309 76 0 153
-0.355419 -0.419202 0.158159 76 0 153
0.347592 -0.171994 0.098952 76 0 153
0.413324 0.634565 0.271262 204 51 127
0.346593 0.240437 -0.158008 76 0 153
-0.355419 0.333862 0.140190 76 0 153
-0.012651 0.276982 -0.300111 76 0 153
0.055449 0.634649 0.447506 204 51 127
0.259527 -0.670430 -0.253357 153 0 76
-0.307691 -0.542733 -0.300111 76 0 153
-0.442520 0.654480 -0.337877 204 51 127
0.118665 -0.710504 -0.111743 153 0 76
0.060134 -0.461392 0.268473 76 0 153
0.307920 0.057687 -0.300110 76 0 153
0.313085 -0.895812 -0.107987 153 76 0
0.261160 0.702481 -0.415181 255 0 0
-0.354120 -0.857737 -0.273273 76 0 153
0.117978 -0.748881 0.240595 76 0 153
0.045316 0.758819 0.131676 204 51 127
-0.068746 -0.873322 -0.061017 153 0 76
0.435902 0.687599 0.350329 204 51 127
-0.311184 -0.387750 0.275613 76 0 153
-0.355419 -0.488281 0.191189 76 0 153
0.347592 -0.015342 0.116530 76 0 153
-0.355419 0.436942 0.009837 76 0 153
-0.337364 0.460184 0.358372 76 0 153
-0.355419 0.108457 0.266082 76 0 153
-0.324914 0.586144 -0.302613 76 0 153
-0.355419 -0.020067 0.019822 76 0 153
0.272957 0.624826 0.381066 76 0 153
0.077335 0.387966 0.351838 76 0 153
0.411252 0.634540 -0.051071 204 51 127
0.346998 0.042326 0.269428 76 0 153
0.282182 -0.895860 -0.065216 153 0 76
-0.260489 -0.785173 -0.063194 153 0 76
-0.348156 0.527729 0.363647 76 0 153
-0.041257 0.756066 0.144255 204 51 127
0.346593 0.207283 -0.131572 76 0 153
-0.355419 -0.338672 0.192254 76 0 153
-0.428817 0.634820 0.167343 204 51 127
-0.209514 -0.051497 0.309224 76 0 153
-0.004055 0.472172 -0.300111 76 0 153
-0.076172 -0.695281 -0.131970 153 0 76
-0.235519 -0.818614 0.233833 76 0 153
-0.024106 0.777233 0.003631 204 51 127
0.105015 -0.507005 0.263888 76 0 153
0.346593 0.296574 -0.009217 76 0 153
0.399496 0.634498 0.342280 204 51 127
-0.355559 0.596996 0.168513 76 0 153
-0.168234 -0.721675 0.243234 76 0 153
0.346919 0.077371 0.274391 76 0 153
0.316047 -0.914197 0.106476 153 0 76
-0.319129 0.673101 -0.351948 204 51 127
0.140688 0.634516 0.435535 204 51 127
0.141090 0.783134 -0.059401 204 51 127
-0.194564 0.776853 0.009754 204 51 127
0.240818 0.234747 -0.300111 76 0 153
0.305677 -0.675252 0.247571 76 0 153
-0.079394 0.398254 0.352836 76 0 153
0.008634 -0.077374 0.306715 76 0 153
0.222348 0.367528 0.349856 76 0 153
-0.354980 -0.470452 -0.290175 76 0 153
0.337657 -0.748138 0.238352 76 0 153
0.346593 0.360557 0.168926 76 0 153
0.346807 0.207347 0.289523 76 0 153
-0.283699 0.306812 0.343969 76 0 153
0.259251 0.634510 0.413423 204 51 127
-0.201519 -0.474648 -0.300111 76 0 153
-0.201597 0.071631 -0.300111 76 0 153
-0.122979 -0.446962 -0.300111 76 0 153
-0.355419 -0.092717 0.194290 76 0 153
0.347284 0.487140 0.311344 76 0 153
-0.355415 0.301626 0.320923 76 0 153
-0.254439 -0.830338 -0.171481 76 0 153
-0.218470 0.735108 -0.422303 255 0 0
0.187119 0.151381 0.328895 76 0 153
0.347592 -0.126847 -0.143951 76 0 153
-0.355419 -0.047437 0.068164 76 0 153
-0.346947 -0.892979 -0.257606 76 0 153
-0.256425 -0.670430 -0.252077 153 0 76
-0.318742 0.773032 0.040138 204 51 127
-0.050683 0.740741 0.216038 204 51 127
0.089496 0.604422 -0.302593 76 0 153
-0.355419 -0.043839 0.248157 76 0 153
0.311135 -0.677738 -0.193064 153 76 0
0.038952 0.235866 0.337089 76 0 153
-0.444289 0.661347 -0.231671 204 51 127
0.272884 -0.895091 -0.204963 153 76 0
0.247292 0.510998 0.363769 76 0 153
0.346856 0.002769 0.036108 76 0 153
0.347216 0.226785 0.270646 76 0 153
0.348763 0.614673 0.313048 76 0 153
-0.123632 0.325255 -0.300111 76 0 153
0.029192 0.145926 -0.300111 76 0 153
-0.421845 0.725778 0.273906 204 51 127
0.174632 0.134402 -0.300111 76 0 153
-0.244936 -0.847249 0.231057 76 0 153
-0.236719 0.772869 0.051389 204 51 127
0.346593 -0.519672 0.125239 76 0 153
-0.355314 0.345279 0.329178 76 0 153
0.197695 0.402907 0.353287 76 0 153
-0.304863 -0.569517 0.257989 76 0 153
-0.385424 0.760307 0.123107 204 51 127
-0.355416 -0.021739 -0.277366 76 0 153
-0.244526 -0.670058 -0.287835 153 0 76
0.329989 -0.870721 -0.090748 153 76 0
0.187563 0.721354 -0.423410 255 0 0
0.072489 0.785773 -0.242116 204 51 127
0.133114 0.175636 -0.300111 76 0 153
-0.374017 0.772514 0.044926 204 51 127
-0.355419 -0.549809 -0.168327 76 0 153
-0.222178 0.440560 -0.300111 76 0 153
0.296554 0.786209 -0.220084 204 51 127
-0.136440 -0.577458 0.257219 76 0 153
-0.067774 -0.914214 0.113528 153 0 76
-0.069556 0.768707 0.070061 204 51 127
-0.046850 0.576510 0.370118 76 0 153
0.107756 0.368305 0.349932 76 0 153
-0.444017 0.707531 -0.345345 204 51 127
0.075810 -0.767419 -0.069792 153 0 76
-0.285584 -0.744364 -0.091983 76 0 153
0.061297 0.028146 -0.300111 76 0 153
-0.007898 -0.626566 0.252457 76 0 153
-0.246975 -0.677177 0.247888 76 0 153
0.344687 -0.717319 -0.221937 153 76 0
0.139330 0.660409 0.458606 204 51 127
0.099205 0.723860 -0.368006 255 0 0
0.346593 0.117933 -0.064816 76 0 153
-0.126279 -0.159559 -0.300111 76 0 153
-0.430097 0.634902 -0.332123 204 51 127
0.346593 0.416925 0.186585 76 0 153
-0.354385 -0.382008 0.254477 76 0 153
0.347592 -0.226591 -0.128155 76 0 153
0.218753 -0.635376 0.251603 76 0 153
-0.355419 0.054032 -0.155588 76 0 153
-0.234099 0.607379 0.373726 76 0 153
-0.355419 -0.351839 0.216883 76 0 153
0.433477 0.742153 0.183317 204 51 127
0.235260 -0.763591 -0.071478 153 0 76
-0.355419 -0.827290 0.185356 76 0 153
0.189675 -0.749677 0.240518 76 0 153
-0.356537 0.607674 -0.121393 76 0 153
0.237805 -0.032607 -0.300111 76 0 153
0.347592 -0.433453 -0.077795 76 0 153
-0.355419 0.041500 0.185960 76 0 153
-0.355419 0.168638 -0.092287 76 0 153
0.346593 -0.741475 0.073029 76 0 153
-0.355419 -0.057404 -0.120169 76 0 153
0.347592 -0.137106 -0.199403 76 0 153
0.273159 0.412890 0.354255 76 0 153
0.044420 0.336527 0.346850 76 0 153
-0.060604 0.348311 -0.300111 76 0 153
0.347592 0.102875 0.198715 76 0 153
0.346593 0.296524 -0.187397 76 0 153
0.290176 -0.022493 0.312034 76 0 153
0.161146 -0.914214 0.140475 153 0 76
0.342823 -0.565522 -0.297308 76 0 153
-0.355419 -0.619003 0.005834 76 0 153
0.158201 0.102664 0.324077 76 0 153
0.346593 0.393356 -0.150066 76 0 153
-0.282488 -0.891574 -0.166892 76 0 153
0.346593 0.531172 -0.175712 76 0 153
-0.442196 0.645364 0.406924 204 51 127
-0.355419 -0.429996 0.141939 76 0 153
0.110747 -0.742851 -0.083450 153 0 76
0.344719 -0.800422 -0.181269 153 76 0
0.369867 0.688963 0.389550 204 51 127
0.324627 -0.727294 -0.283634 153 76 0
-0.442615 0.646768 0.069257 204 51 127
0.011108 -0.788332 0.236770 76 0 153
-0.184930 -0.853297 -0.057809 153 0 76
0.307764 0.459902 0.358773 76 0 153
0.257593 0.677075 0.429028 204 51 127
-0.355419 0.040279 -0.235172 76 0 153
0.347188 0.415845 0.265160 76 0 153
-0.355419 -0.121604 0.121070 76 0 153
-0.044882 -0.849282 0.230860 76 0 153
-0.136893 -0.275365 -0.300111 76 0 153
0.350465 0.680458 0.412915 204 51 127
-0.130984 -0.697609 0.245413 76 0 153
0.396758 0.785241 -0.254812 204 51 127
-0.355419 -0.563681 0.045293 76 0 153
-0.378138 0.634517 0.379305 204 51 127
0.309869 0.784561 -0.258977 204 51 127
-0.342706 0.783055 -0.060609 204 51 127
0.026516 0.723701 0.281408 204 51 127
-0.355419 0.044944 0.098519 76 0 153
-0.267811 -0.546724 -0.300111 76 0 153
-0.355419 -0.192185 -0.082209 76 0 153
0.225308 -0.282410 0.285831 76 0 153
-0.254111 -0.832168 -0.140799 76 0 153
0.129113 0.383646 -0.300111 76 0 153
-0.085912 -0.203445 0.293483 76 0 153
-0.033114 -0.729306 0.242494 76 0 153
-0.152723 -0.439906 0.270868 76 0 153
-0.143728 -0.914096 -0.036785 153 0 76
0.249855 -0.482812 -0.300111 76 0 153
-0.135694 -0.717889 -0.103953 153 0 76
-0.359999 0.619574 -0.220180 76 0 153
0.288543 -0.783553 0.237233 76 0 153
-0.068961 0.010646 -0.300111 76 0 153
0.241018 0.647174 0.463540 204 51 127
-0.054591 0.145591 -0.300111 76 0 153
-0.385269 0.634585 0.159096 204 51 127
0.019785 -0.670238 -0.282694 153 0 76
0.123374 -0.566122 -0.300111 76 0 153
0.318502 0.729333 -0.367510 255 0 0
-0.355419 0.000414 -0.078859 76 0 153
0.347326 0.189499 0.252368 76 0 153
-0.196823 -0.729010 -0.093625 153 0 76
0.321057 -0.192950 -0.300009 76 0 153
0.233156 -0.699227 -0.126035 153 0 76
-0.355419 0.417625 0.191896 76 0 153
0.346593 0.475939 -0.127014 76 0 153
-0.287217 -0.350212 -0.300111 76 0 153
0.330336 -0.293201 0.285045 76 0 153
-0.109295 -0.062831 -0.300111 76 0 153
-0.214571 -0.903809 -0.064867 153 0 76
0.342300 0.071902 -0.297592 76 0 153
-0.147680 0.114657 0.325335 76 0 153
-0.114880 -0.167636 0.297025 76 0 153
-0.355419 0.278486 -0.171412 76 0 153
-0.034082 -0.822444 0.233461 76 0 153
0.433548 0.731226 0.230011 204 51 127
0.002499 -0.914214 0.147208 153 0 76
0.250372 -0.914214 0.061968 153 0 76
0.052322 -0.670633 -0.217662 153 0 76
0.145993 -0.123615 0.302211 76 0 153
0.436042 0.722702 -0.179401 204 51 127
-0.347233 -0.513509 -0.299004 76 0 153
-0.322524 0.779370 -0.017846 204 51 127
0.096301 0.625346 0.381394 76 0 153
-0.355419 -0.105260 0.110909 76 0 153
-0.244680 -0.175047 0.296237 76 0 153
-0.228496 0.755156 0.150397 204 51 127
-0.213118 0.212037 -0.300111 76 0 153
-0.272410 0.424930 0.355423 76 0 153
0.065839 -0.418391 -0.300111 76 0 153
-0.269389 0.403105 -0.300111 76 0 153
0.320384 0.449709 -0.300004 76 0 153
-0.355419 0.086074 0.045286 76 0 153
-0.355419 0.374291 0.188079 76 0 153
0.143938 0.134534 0.327262 76 0 153
0.009127 -0.748261 -0.079908 153 0 76
-0.017492 0.752297 -0.357181 255 0 0
-0.145806 0.035053 0.317614 76 0 153
0.343650 -0.699833 -0.116260 76 0 153
-0.076302 -0.519976 0.262727 76 0 153
-0.355373 -0.141489 -0.278635 76 0 153
0.347592 -0.572143 0.004223 76 0 153
0.436079 0.677579 0.037535 204 51 127
-0.241302 -0.914214 0.000522 153 0 76
0.268110 -0.739533 -0.149643 153 76 0
-0.045592 0.743327 -0.375109 255 0 0
0.242725 -0.339803 0.280257 76 0 153
0.045082 0.707688 0.333140 204 51 127
0.347430 -0.376221 -0.280706 76 0 153
0.346779 0.078750 0.071397 76 0 153
0.347592 -0.669074 0.181104 76 0 153
0.154719 0.720326 -0.423387 255 0 0
0.347519 -0.744273 -0.029994 76 0 153
-0.355165 -0.219321 -0.284729 76 0 153
0.295342 -0.232228 0.291652 76 0 153
0.347237 -0.893336 0.031330 76 0 153
-0.236644 0.788194 -0.111355 204 51 127
-0.031637 -0.529627 -0.300111 76 0 153
-0.116608 0.772985 -0.328345 204 51 127
0.427524 0.775615 -0.317800 204 51 127
-0.304706 -0.516955 0.262993 76 0 153
0.133368 0.785712 -0.243553 204 51 127
-0.166381 0.485898 0.361305 76 0 153
0.152431 -0.707896 0.244509 76 0 153
0.196557 0.149366 -0.300111 76 0 153
0.346593 0.496338 0.113102 76 0 153
0.347505 -0.631639 0.002735 76 0 153
0.347592 -0.247181 0.104613 76 0 153
-0.288188 -0.914214 0.156203 153 0 76
-0.355419 0.093023 0.205796 76 0 153
0.347592 -0.073912 -0.206748 76 0 153
-0.092918 -0.670425 -0.275512 153 0 76
-0.355419 -0.491441 0.092122 76 0 153
0.135593 0.383248 0.351381 76 0 153
0.346593 0.556286 0.161275 76 0 153
0.313343 0.355756 0.348714 76 0 153
0.022096 -0.830908 -0.056778 153 0 76
0.015311 -0.094524 0.305023 76 0 153
0.344838 -0.766458 -0.236391 153 76 0
0.133120 -0.212575 0.292916 76 0 153
0.162774 -0.803303 -0.172991 153 0 76
-0.277272 -0.751920 0.240869 76 0 153
0.347592 -0.347613 -0.196294 76 0 153
-0.149833 0.014959 0.315665 76 0 153
-0.173505 -0.609543 -0.300111 76 0 153
-0.354318 -0.765612 -0.121207 76 0 153
-0.355419 -0.394863 -0.215050 76 0 153
-0.193473 -0.116889 -0.300111 76 0 153
-0.355419 -0.690149 0.182122 76 0 153
0.305709 0.228378 -0.300110 76 0 153
0.347592 -0.158016 0.067780 76 0 153
-0.355418 0.580709 -0.083485 76 0 153
0.347188 -0.794584 -0.046332 76 0 153
0.275407 0.004792 0.314679 76 0 153
0.386953 0.665892 -0.350865 204 51 127
0.326862 -0.669538 -0.275178 153 0 76
-0.355419 0.530404 -0.185743 76 0 153
-0.355419 -0.833517 0.114751 76 0 153
-0.203349 0.692469 -0.362946 204 51 127
-0.006758 -0.818369 0.233857 76 0 153
-0.355419 0.127787 -0.042685 76 0 153
0.171384 0.475735 -0.300111 76 0 153
-0.355724 0.598792 0.063179 76 0 153
0.035216 -0.200829 0.293737 76 0 153
-0.355419 -0.383544 0.178203 76 0 153
-0.001400 -0.226905 0.291353 76 0 153
0.270454 -0.059115 -0.300111 76 0 153
-0.407464 0.703235 -0.399644 255 0 0
-0.339582 0.702793 -0.415956 255 0 0
-0.444355 0.763390 -0.156320 204 51 127
-0.256817 -0.588194 0.256178 76 0 153
-0.355417 0.552603 0.335999 76 0 153
0.347592 -0.181321 0.114893 76 0 153
0.109299 -0.587189 0.256275 76 0 153
-0.166459 -0.786193 -0.062780 153 0 76
0.274851 -0.875413 -0.267927 153 76 0
0.347592 -0.158986 -0.256245 76 0 153
0.348925 0.613793 0.186853 76 0 153
0.097328 -0.628439 -0.300111 76 0 153
-0.355419 -0.467023 0.190305 76 0 153
0.347590 -0.455900 -0.272740 76 0 153
0.214393 -0.200906 0.294680 76 0 153
0.346593 -0.506462 0.093365 76 0 153
-0.159289 0.551999 0.367743 76 0 153
-0.282645 -0.749842 -0.260788 76 0 153
0.346593 0.007075 -0.164224 76 0 153
0.085654 0.784744 -0.084814 204 51 127
-0.318114 0.565132 -0.300100 76 0 153
0.347592 -0.290863 -0.070886 76 0 153
0.256903 -0.120198 -0.300111 76 0 153
0.318239 0.783555 -0.279095 204 51 127
-0.337969 -0.283280 0.285802 76 0 153
0.327691 0.388565 -0.299877 76 0 153
-0.354318 -0.761987 -0.247943 76 0 153
0.346593 0.445078 0.207459 76 0 153
-0.088756 0.776098 0.016336 204 51 127
0.347250 -0.319121 0.106785 76 0 153
-0.089054 -0.169489 0.296812 76 0 153
-0.062763 -0.645482 -0.300082 76 0 153
-0.047296 0.634583 0.441380 204 51 127
-0.355419 -0.415194 -0.129865 76 0 153
0.077379 0.697072 0.366180 204 51 127
-0.362022 0.664929 -0.350854 204 51 127
-0.444365 0.691436 -0.144541 204 51 127
-0.355419 -0.525410 0.157371 76 0 153
0.301569 0.742323 -0.419856 255 0 0
0.044880 -0.878895 0.227821 76 0 153
0.346593 0.356436 -0.122590 76 0 153
-0.210969 0.753002 0.161045 204 51 127
-0.084495 -0.299521 0.284244 76 0 153
0.142271 0.767921 -0.335898 204 51 127
0.282706 -0.639309 0.251221 76 0 153
-0.319329 -0.347421 -0.300111 76 0 153
-0.168234 -0.303828 0.283583 76 0 153
-0.326885 0.187945 -0.300085 76 0 153
-0.355387 -0.641686 -0.264431 76 0 153
-0.355419 0.011685 -0.140384 76 0 153
0.168413 0.628321 -0.318109 76 0 153
-0.062123 -0.676968 -0.171164 153 0 76
0.347592 -0.122184 0.065174 76 0 153
-0.005739 0.632631 -0.328149 76 0 153
0.181058 -0.447413 -0.300111 76 0 153
-0.108077 -0.066646 0.307755 76 0 153
-0.296585 -0.731151 -0.284220 76 0 153
-0.355419 0.145853 0.221893 76 0 153
0.347456 -0.281265 0.106102 76 0 153
-0.374023 0.772564 -0.328958 204 51 127
-0.436365 0.637877 0.291201 204 51 127
0.299571 -0.561960 -0.300111 76 0 153
-0.012064 0.760013 0.123411 204 51 127
0.347592 -0.340663 -0.105772 76 0 153
0.343962 -0.838838 -0.288130 153 76 0
-0.011975 0.535031 0.366099 76 0 153
0.115470 0.653792 -0.350726 204 51 127
0.247273 -0.565374 -0.300111 76 0 153
0.025909 0.180351 0.331704 76 0 153
-0.353115 0.239540 -0.293952 76 0 153
-0.355301 -0.753538 -0.051019 76 0 153
0.347592 -0.587118 -0.258906 76 0 153
0.366672 0.669365 0.442215 204 51 127
-0.197065 -0.270824 0.286951 76 0 153
-0.354318 -0.749967 -0.195039 76 0 153
-0.355419 0.164549 -0.189781 76 0 153
0.436536 0.738108 -0.027411 204 51 127
-0.027458 0.337075 0.346903 76 0 153
0.052576 -0.709423 0.244375 76 0 153
-0.355419 0.449121 0.075150 76 0 153
0.015375 -0.794213 -0.200894 153 0 76
0.325133 -0.797371 -0.066700 153 76 0
-0.053575 -0.562339 -0.300111 76 0 153
-0.130279 0.044778 0.318557 76 0 153
0.278952 -0.358996 0.278400 76 0 153
-0.355419 0.205700 -0.003990 76 0 153
-0.030012 0.780857 -0.304645 204 51 127
-0.053842 -0.420495 -0.300111 76 0 153
0.347592 -0.391940 -0.103136 76 0 153
0.347592 -0.278560 -0.027595 76 0 153
-0.248899 -0.766960 0.239099 76 0 153
-0.149535 0.339452 0.347133 76 0 153
0.086491 -0.275302 -0.300111 76 0 153
0.118545 -0.599812 -0.300111 76 0 153
-0.024043 -0.914214 0.059671 153 0 76
0.250794 0.403736 -0.300111 76 0 153
-0.352121 -0.883904 0.217492 76 0 153
0.042305 -0.563926 0.258532 76 0 153
0.347592 -0.619997 -0.233496 76 0 153
0.420138 0.640096 0.459767 204 51 127
0.347577 -0.438690 0.015731 76 0 153
0.337982 0.692490 0.378801 204 51 127
0.240648 0.254365 0.338753 76 0 153
0.190619 0.378517 0.350922 76 0 153
0.149692 -0.238044 0.290231 76 0 153
-0.342066 -0.323782 -0.299643 76 0 153
0.347549 -0.528834 -0.038922 76 0 153
0.219737 0.643970 0.462020 204 51 127
0.016675 -0.139752 0.300618 76 0 153
-0.293585 0.387773 -0.300111 76 0 153
-0.004636 0.724486 0.278418 204 51 127
-0.089671 -0.914214 0.087634 153 0 76
0.172115 -0.914214 0.013589 153 0 76
0.001283 0.731533 0.251718 204 51 127
0.347239 0.373206 0.238542 76 0 153
-0.172853 0.785410 -0.100588 204 51 127
0.245343 0.752441 0.173317 204 51 127
0.346593 -0.081438 0.224035 76 0 153
-0.249153 -0.420106 -0.300111 76 0 153
0.124452 0.116095 -0.300111 76 0 153
-0.355419 -0.481250 -0.085189 76 0 153
-0.164316 -0.913990 -0.039178 153 0 76
0.305468 0.139641 -0.300110 76 0 153
-0.328831 -0.736848 -0.083271 76 0 153
-0.353238 -0.599507 0.247183 76 0 153
0.034056 -0.036968 0.310631 76 0 153
0.346593 0.537678 -0.065706 76 0 153
-0.090965 -0.914214 0.027376 153 0 76
0.057470 -0.914076 0.202479 153 0 76
-0.253820 -0.520026 0.262723 76 0 153
0.111945 -0.914214 0.126960 153 0 76
-0.255297 -0.782987 -0.250851 76 0 153
-0.324285 -0.857910 -0.297792 76 0 153
0.276229 0.766328 -0.337882 204 51 127
0.188834 -0.664909 -0.298786 76 0 153
-0.389273 0.787088 -0.164716 204 51 127
0.346593 0.465341 -0.098404 76 0 153
-0.355417 -0.476027 -0.269792 76 0 153
0.337444 -0.582699 -0.299059 76 0 153
-0.274878 0.512035 0.363869 76 0 153
0.036929 -0.518206 -0.300111 76 0 153
0.347592 -0.480457 -0.157146 76 0 153
0.346593 0.146019 -0.159268 76 0 153
0.347655 0.633022 -0.331512 204 51 127
0.347592 -0.774108 0.196385 76 0 153
-0.016403 0.364786 0.349590 76 0 153
-0.166595 0.779629 -0.016969 204 51 127
0.302407 -0.914768 -0.139768 153 76 0
-0.031731 0.681883 0.409603 204 51 127
-0.212431 0.404136 0.353406 76 0 153
-0.355419 -0.452812 0.005022 76 0 153
-0.355419 0.446816 -0.048895 76 0 153
-0.086103 -0.629323 -0.300111 76 0 153
0.346593 0.396466 -0.179014 76 0 153
0.343956 -0.661777 -0.183618 76 0 153
0.347163 -0.073010 0.297452 76 0 153
-0.025559 -0.099650 0.304526 76 0 153
-0.314247 -0.096004 -0.300111 76 0 153
0.347592 -0.203553 -0.151706 76 0 153
0.346702 -0.472647 0.146661 76 0 153
-0.008660 -0.711795 -0.110293 153 0 76
0.127711 0.702593 0.349964 204 51 127
-0.270811 0.140349 0.327826 76 0 153
-0.083919 0.784585 -0.084333 204 51 127
-0.194535 0.786915 -0.146726 204 51 127
-0.355419 0.466949 -0.115976 76 0 153
-0.355419 0.464174 -0.218577 76 0 153
0.082195 -0.751834 0.240309 76 0 153
0.124792 -0.733015 0.242134 76 0 153
0.122682 -0.793689 -0.174441 153 0 76
0.021458 -0.758028 0.239708 76 0 153
-0.388394 0.634562 0.099394 204 51 127
0.347592 -0.386498 -0.051138 76 0 153
-0.013278 0.016963 0.315859 76 0 153
0.255821 0.786943 -0.061867 204 51 127
-0.444239 0.655337 0.108190 204 51 127
0.322296 -0.376254 -0.299990 76 0 153
-0.005276 -0.317993 0.282209 76 0 153
-0.353712 -0.755092 0.228820 76 0 153
-0.237582 -0.747797 -0.080092 153 0 76
-0.051403 0.699727 -0.380327 255 0 0
0.347592 -0.180487 -0.186151 76 0 153
-0.049646 -0.760976 -0.072467 153 0 76
0.346593 0.379010 -0.059916 76 0 153
0.245119 0.455207 0.358341 76 0 153
0.244623 -0.759917 -0.207298 153 76 0
-0.355419 -0.120637 0.159232 76 0 153
0.347184 -0.853839 0.084739 76 0 153
-0.442873 0.647697 0.195134 204 51 127
-0.226464 -0.672926 -0.191429 153 0 76
-0.035921 0.286179 -0.300111 76 0 153
-0.355419 0.234018 0.078716 76 0 153
-0.191308 0.784458 -0.079114 204 51 127
0.346593 0.444487 0.137975 76 0 153
-0.347437 0.779189 -0.014114 204 51 127
0.068916 0.165693 0.330283 76 0 153
0.099641 -0.506179 -0.300111 76 0 153
-0.179537 -0.151276 -0.300111 76 0 153
-0.144351 -0.663991 -0.298912 76 0 153
0.346593 0.469914 -0.050321 76 0 153
-0.355419 -0.303791 -0.213733 76 0 153
-0.355419 -0.667095 0.159715 76 0 153
-0.091595 0.079731 0.321781 76 0 153
0.029019 -0.903047 0.223967 76 0 153
-0.355419 -0.475137 0.013019 76 0 153
-0.355419 0.533905 0.281309 76 0 153
0.197741 -0.167554 -0.300111 76 0 153
0.328821 0.786937 -0.162556 204 51 127
0.347592 -0.315054 -0.023065 76 0 153
0.210124 0.774674 0.023525 204 51 127
0.089047 0.687520 0.393359 204 51 127
0.248341 -0.123205 0.302250 76 0 153
0.355616 0.785959 -0.233993 204 51 127
-0.355419 -0.283406 0.188177 76 0 153
0.347586 0.083773 0.114957 76 0 153
-0.131828 -0.249660 0.289001 76 0 153
-0.102676 -0.692163 0.245931 76 0 153
0.436311 0.658417 0.315046 204 51 127
-0.444287 0.696130 0.278283 204 51 127
0.041493 0.553536 0.367892 76 0 153
-0.355419 0.191715 -0.182373 76 0 153
-0.133812 0.387111 -0.300111 76 0 153
0.435801 0.722660 -0.240022 204 51 127
-0.051739 -0.914214 0.027411 153 0 76
0.163809 0.634565 0.406309 204 51 127
-0.347584 -0.571824 -0.298961 76 0 153
-0.053327 -0.914214 0.100854 153 0 76
0.436280 0.712078 0.040849 204 51 127
-0.163314 -0.914214 0.152841 153 0 76
0.258624 -0.382299 0.276141 76 0 153
-0.017198 -0.870068 0.228756 76 0 153
-0.354316 -0.806586 -0.090680 76 0 153
0.435097 0.680662 -0.334966 204 51 127
0.121948 0.783124 -0.059270 204 51 127
-0.355419 0.335235 0.037991 76 0 153
-0.159485 -0.072042 0.307232 76 0 153
0.347592 -0.096787 -0.183061 76 0 153
0.090895 -0.209546 0.292902 76 0 153
0.346593 0.189374 -0.123014 76 0 153
-0.444365 0.731010 -0.025443 204 51 127
0.344836 -0.864986 -0.243554 153 76 0
-0.320072 -0.860105 -0.078784 76 0 153
-0.351198 0.780799 -0.033081 204 51 127
0.101737 0.409000 -0.300111 76 0 153
-0.327862 -0.440261 0.270510 76 0 153
-0.310972 0.740116 0.217959 204 51 127
-0.013470 0.778545 -0.009391 204 51 127
-0.070855 -0.875109 0.228204 76 0 153
0.068425 -0.788672 0.236737 76 0 153
0.238609 0.543918 -0.300111 76 0 153
0.347592 0.297414 0.248256 76 0 153
-0.359926 0.786755 -0.148510 204 51 127
0.435868 0.669973 -0.268280 204 51 127
-0.355419 0.121114 0.106090 76 0 153
-0.442776 0.745618 -0.360135 255 0 0
-0.305126 -0.612462 -0.300111 76 0 153
-0.000149 0.786278 -0.223301 204 51 127
-0.140916 -0.524452 -0.300111 76 0 153
-0.355419 -0.115299 -0.020797 76 0 153
0.436537 0.698792 0.144978 204 51 127
-0.354318 -0.852895 -0.146069 76 0 153
0.344838 -0.793177 -0.119930 153 76 0
0.161007 0.364882 0.349600 76 0 153
0.313362 -0.070942 -0.300110 76 0 153
-0.354266 -0.816907 -0.288716 76 0 153
0.346593 0.574250 0.015064 76 0 153
-0.041340 -0.382758 0.276096 76 0 153
0.142050 -0.331099 0.281021 76 0 153
0.347309 -0.680878 0.137203 76 0 153
-0.355419 -0.178484 -0.136684 76 0 153
-0.091766 0.356663 0.348802 76 0 153
-0.331798 0.615227 -0.314749 76 0 153
0.347592 -0.535933 -0.200161 76 0 153
-0.110772 0.785919 -0.238419 204 51 127
-0.352365 0.786833 -0.174149 204 51 127
-0.069844 0.527115 -0.300111 76 0 153
-0.444365 0.708991 -0.284726 204 51 127
-0.137677 -0.811716 -0.176356 153 0 76
-0.116865 0.782918 -0.289095 204 51 127
-0.355419 0.038606 -0.038378 76 0 153
0.157002 -0.393341 0.275071 76 0 153
-0.442344 0.645784 0.369657 204 51 127
-0.355418 0.025158 -0.262516 76 0 153
-0.105526 -0.894874 -0.065087 153 0 76
-0.081828 0.634657 0.448176 204 51 127
0.322174 -0.923225 -0.190007 153 76 0
0.375264 0.746198 0.192860 204 51 127
0.125796 -0.703233 0.244919 76 0 153
-0.275790 0.675238 0.437831 204 51 127
0.342577 -0.357621 -0.297689 76 0 153
-0.187388 0.146829 -0.300111 76 0 153
-0.037784 -0.253297 -0.300111 76 0 153
0.347113 0.523713 0.322711 76 0 153
-0.355419 0.338500 0.193689 76 0 153
-0.340296 0.081566 0.320868 76 0 153
0.220805 0.487456 0.361456 76 0 153
0.121733 -0.686744 -0.147035 153 0 76
-0.430688 0.634867 -0.304118 204 51 127
-0.005298 0.785623 -0.106654 204 51 127
-0.438328 0.639048 -0.193969 204 51 127
0.031030 0.761014 0.119038 204 51 127
-0.355419 -0.253865 0.226258 76 0 153
0.347234 -0.881908 0.056492 76 0 153
0.027579 -0.395079 0.274903 76 0 153
-0.284520 -0.021280 0.312151 76 0 153
-0.124966 -0.456077 0.269528 76 0 153
-0.165477 0.786802 -0.141804 204 51 127
-0.227853 0.746950 0.190869 204 51 127
0.345339 -0.903651 0.115579 76 0 153
-0.117092 0.631696 0.390776 204 51 127
0.158342 -0.742193 -0.083894 153 0 76
-0.294876 0.787878 -0.200231 204 51 127
0.347592 -0.287631 -0.167936 76 0 153
-0.356522 0.607508 0.295928 76 0 153
0.036500 0.572974 0.369776 76 0 153
-0.284985 -0.692244 -0.172835 76 0 153
0.066611 -0.538632 -0.300111 76 0 153
-0.108954 0.781611 -0.040116 204 51 127
-0.444252 0.747082 0.075120 204 51 127
0.149529 0.410660 -0.300111 76 0 153
0.306655 -0.879252 -0.062413 153 0 76
0.393248 0.634497 0.242225 204 51 127
-0.320829 -0.847118 0.231572 76 0 153
0.220438 0.727521 0.267748 204 51 127
0.166326 -0.914214 0.055787 153 0 76
-0.355419 -0.281618 -0.071193 76 0 153
-0.199757 0.529311 -0.300111 76 0 153
0.346571 0.261798 -0.278343 76 0 153
-0.355419 -0.433168 -0.234869 76 0 153
0.241532 -0.875268 -0.061475 153 0 76
-0.355419 -0.041435 -0.052761 76 0 153
0.075951 -0.264157 0.287597 76 0 153
0.123367 0.472681 -0.300111 76 0 153
-0.229463 0.092773 0.323046 76 0 153
0.168158 0.746654 0.190537 204 51 127
-0.115939 -0.027882 0.311511 76 0 153
0.172503 0.700141 -0.364601 255 0 0
0.094681 -0.406087 0.273836 76 0 153
-0.355419 0.132186 -0.254886 76 0 153
0.347432 0.779683 -0.020921 204 51 127
-0.219579 -0.670430 -0.257466 153 0 76
0.209715 -0.732643 -0.090686 153 0 76
-0.024327 0.327641 -0.300111 76 0 153
0.088044 -0.491613 -0.300111 76 0 153
0.069121 -0.914214 -0.001032 153 0 76
-0.033685 -0.573137 -0.300111 76 0 153
-0.319638 -0.924667 -0.198065 76 0 153
-0.355419 -0.783419 0.052425 76 0 153
0.346593 0.077325 -0.193125 76 0 153
0.347456 -0.070970 -0.280162 76 0 153
-0.355419 0.510182 0.210014 76 0 153
0.113520 0.743571 0.203622 204 51 127
-0.178789 0.763184 -0.342264 204 51 127
-0.238086 -0.637624 -0.300111 76 0 153
0.330393 -0.593736 0.255822 76 0 153
0.137827 -0.526106 0.262188 76 0 153
-0.167777 -0.328437 0.281255 76 0 153
0.233617 -0.670426 -0.272146 153 0 76
-0.032989 0.604189 -0.302529 76 0 153
0.347592 -0.196145 0.076117 76 0 153
-0.355419 0.392910 -0.136000 76 0 153
0.070458 -0.862737 -0.058950 153 0 76
-0.034820 0.475982 -0.300111 76 0 153
-0.021252 -0.683438 0.246777 76 0 153
0.346744 0.468321 0.273649 76 0 153
-0.355419 -0.663983 0.061680 76 0 153
-0.332142 -0.419900 -0.300057 76 0 153
0.347592 -0.264087 0.020695 76 0 153
0.346593 0.398246 -0.115297 76 0 153
-0.355419 0.563651 -0.047355 76 0 153
-0.145264 -0.827894 -0.056736 153 0 76
0.128844 0.722695 -0.367987 255 0 0
-0.154361 -0.083067 -0.300111 76 0 153
0.346593 0.536274 0.261202 76 0 153
-0.351698 -0.663356 -0.243700 76 0 153
-0.355419 -0.584963 0.011614 76 0 153
-0.355419 0.512763 -0.131389 76 0 153
0.408547 0.634506 -0.177000 204 51 127
0.106003 -0.700635 -0.124033 153 0 76
0.346593 0.053305 0.007711 76 0 153
0.279451 -0.670430 -0.251829 153 0 76
0.346593 0.483177 0.208527 76 0 153
-0.355419 -0.544433 0.153071 76 0 153
0.237049 -0.591494 -0.300111 76 0 153
-0.052999 0.017395 0.315901 76 0 153
0.273683 -0.748391 -0.096752 153 76 0
0.200874 0.779249 -0.313037 204 51 127
-0.159523 0.042287 -0.300111 76 0 153
0.347592 -0.391542 -0.170149 76 0 153
-0.355419 -0.205234 0.028433 76 0 153
0.400876 0.733074 0.247058 204 51 127
-0.016024 0.537822 -0.300111 76 0 153
-0.303236 0.277493 -0.300111 76 0 153
0.347283 0.598712 0.083169 76 0 153
0.346593 0.418139 0.163115 76 0 153
-0.355419 -0.264553 -0.175132 76 0 153
-0.198861 0.627147 0.382532 76 0 153
0.242937 -0.810243 -0.058245 153 0 76
0.346593 0.259105 -0.239438 76 0 153
-0.072294 -0.266957 -0.300111 76 0 153
0.325373 -0.618878 0.253333 76 0 153
0.346960 -0.008709 0.212489 76 0 153
0.236437 -0.832153 0.232520 76 0 153
0.346593 0.241328 0.015839 76 0 153
0.274881 0.697092 -0.363502 204 51 127
0.346918 -0.432281 0.171320 76 0 153
-0.286197 -0.887232 0.227043 76 0 153
0.201592 -0.910684 0.217643 153 0 76
0.347478 -0.499071 0.019116 76 0 153
-0.346474 0.730585 -0.422864 255 0 0
-0.011061 0.639228 -0.342518 204 51 127
0.346593 0.384488 -0.205235 76 0 153
-0.282777 -0.109781 -0.300111 76 0 153
0.430222 0.730178 -0.408938 255 0 0
0.346592 -0.357681 0.134495 76 0 153
-0.416805 0.693632 0.376905 204 51 127
0.018535 0.634627 0.398258 204 51 127
-0.355419 -0.527325 0.187701 76 0 153
-0.254107 -0.821630 -0.234066 76 0 153
-0.101658 0.762709 0.108521 204 51 127
0.263197 -0.914214 0.137120 153 0 76
0.009910 0.644714 0.461969 204 51 127
-0.355419 0.443976 -0.261779 76 0 153
0.347524 -0.640598 0.163520 76 0 153
0.322752 0.640000 0.459857 204 51 127
-0.355419 0.335653 0.167528 76 0 153
-0.250245 -0.056419 0.308747 76 0 153
-0.198219 -0.914212 -0.029875 153 0 76
0.346855 0.591761 0.025501 76 0 153
0.243545 -0.739402 0.241514 76 0 153
0.376572 0.784649 -0.266411 204 51 127
-0.295307 -0.548757 0.260002 76 0 153
0.347592 -0.283402 -0.215531 76 0 153
0.323758 -0.912680 -0.139202 153 76 0
0.178895 -0.047349 -0.300111 76 0 153
-0.336512 0.634497 0.429093 204 51 127
-0.022635 -0.346379 -0.300111 76 0 153
0.110537 0.105955 0.324438 76 0 153
0.256619 -0.460442 0.268565 76 0 153
-0.218829 -0.610583 0.254508 76 0 153
-0.355419 0.397036 -0.243296 76 0 153
-0.355419 0.053289 0.210670 76 0 153
-0.355419 -0.624313 -0.149247 76 0 153
-0.284384 -0.897313 -0.133008 76 0 153
-0.354317 -0.885182 -0.135706 76 0 153
0.346733 0.054667 0.255604 76 0 153
-0.053843 -0.664320 -0.298867 76 0 153
-0.153705 0.296291 0.342934 76 0 153
0.038017 -0.400973 -0.300111 76 0 153
-0.025176 0.440085 0.356891 76 0 153
0.184217 -0.716891 -0.104941 153 0 76
-0.355419 -0.120273 0.212066 76 0 153
0.347421 0.599981 0.048219 76 0 153
0.278882 0.548144 0.367370 76 0 153
-0.260332 -0.290928 -0.300111 76 0 153
-0.404704 0.723513 0.282396 204 51 127
0.027043 0.711208 0.321713 204 51 127
-0.099616 0.787083 -0.182788 204 51 127
-0.373173 0.692638 0.379080 204 51 127
0.176728 -0.914214 0.184348 153 0 76
-0.355419 -0.464328 -0.037736 76 0 153
-0.444314 0.731098 0.122861 204 51 127
0.347095 0.200131 0.265284 76 0 153
-0.175803 -0.224255 0.291465 76 0 153
-0.046984 0.209124 0.334495 76 0 153
0.070208 -0.545282 0.260339 76 0 153
0.050995 -0.787210 -0.183702 153 0 76
0.013616 -0.461442 0.268468 76 0 153
0.266863 -0.861222 -0.058767 153 0 76
-0.183159 0.745773 0.194820 204 51 127
-0.377220 0.747189 0.188208 204 51 127
-0.355418 -0.631167 -0.249458 76 0 153
-0.047383 0.167054 -0.300111 76 0 153
0.045915 -0.371256 0.277211 76 0 153
0.085208 0.482302 -0.300111 76 0 153
-0.097507 0.502474 0.362940 76 0 153
-0.355419 -0.221862 0.167869 76 0 153
0.280638 -0.430236 -0.300111 76 0 153
-0.352160 -0.663060 -0.196127 76 0 153
-0.236713 0.032306 0.317347 76 0 153
0.346593 0.318964 -0.151103 76 0 153
0.346866 -0.018893 -0.214256 76 0 153
0.436241 0.654746 0.201097 204 51 127
-0.355419 0.165653 0.143103 76 0 153
0.199251 0.785546 -0.247531 204 51 127
-0.339698 0.720407 0.292017 204 51 127
0.235918 -0.507353 -0.300111 76 0 153
-0.256136 0.667097 -0.350879 204 51 127
-0.355419 0.193667 0.046281 76 0 153
0.346950 0.244001 0.314800 76 0 153
-0.247516 0.422432 0.355180 76 0 153
0.347090 0.328253 0.312375 76 0 153
-0.355419 -0.551098 -0.200488 76 0 153
-0.211258 0.318739 0.345125 76 0 153
0.079088 0.327137 0.345939 76 0 153
-0.129033 0.608968 0.373965 76 0 153
0.245772 0.787090 -0.094012 204 51 127
0.159546 0.205947 -0.300111 76 0 153
0.264565 -0.585010 0.256487 76 0 153
0.346593 0.424571 0.076321 76 0 153
0.409122 0.701666 0.352152 204 51 127
0.347592 -0.219266 -0.007669 76 0 153
-0.292154 -0.855167 -0.291489 76 0 153
-0.435727 0.760282 0.103627 204 51 127
-0.012023 -0.520048 -0.300111 76 0 153
-0.307189 -0.791768 -0.310209 76 0 153
0.262034 -0.733169 -0.192118 153 76 0
0.356606 0.745604 0.195548 204 51 127
0.347592 -0.186294 -0.219810 76 0 153
0.091769 0.295934 0.342895 76 0 153
-0.355419 -0.367373 0.203474 76 0 153
-0.262774 0.133777 -0.300111 76 0 153
0.037418 -0.840163 0.231744 76 0 153
-0.118003 0.415635 0.354521 76 0 153
-0.355419 -0.396848 0.218161 76 0 153
-0.107212 -0.716772 -0.105068 153 0 76
0.184072 0.640870 -0.345143 204 51 127
-0.354318 -0.771774 -0.138676 76 0 153
-0.189408 0.571277 0.369611 76 0 153
-0.016018 -0.390674 -0.300111 76 0 153
0.094744 0.701391 0.353784 204 51 127
-0.032302 0.201946 -0.300111 76 0 153
-0.110696 0.730407 -0.367370 255 0 0
0.202579 -0.588756 0.256123 76 0 153
-0.008945 -0.574057 -0.300111 76 0 153
0.347592 -0.429042 -0.224831 76 0 153
0.156064 0.719332 0.296641 204 51 127
0.162987 -0.652184 -0.300047 76 0 153
-0.251742 -0.014019 0.312855 76 0 153
-0.356013 0.776061 0.015628 204 51 127
-0.355419 0.191693 -0.051721 76 0 153
-0.211959 -0.163031 0.297556 76 0 153
0.117110 0.568304 0.369323 76 0 153
0.343251 -0.458612 0.266419 76 0 153
-0.179201 0.782635 -0.052637 204 51 127
-0.344679 0.758411 -0.348464 255 0 0
-0.307328 0.766328 0.088213 204 51 127
0.321647 -0.603530 -0.300000 76 0 153
-0.000597 -0.796657 -0.060581 153 0 76
0.142061 -0.542814 0.260578 76 0 153
0.248704 -0.851815 -0.233103 153 76 0
-0.432975 0.635853 0.096519 204 51 127
-0.355419 0.321038 0.103286 76 0 153
-0.355419 0.424053 0.251458 76 0 153
0.364701 0.631662 0.323532 204 51 127
0.090732 -0.863772 -0.059075 153 0 76
-0.134664 0.507313 0.363411 76 0 153
-0.200222 0.667123 0.447371 204 51 127
0.148503 -0.428478 0.271665 76 0 153
-0.013345 0.301045 0.343409 76 0 153
0.252855 0.286024 -0.300111 76 0 153
0.106144 0.018381 0.315997 76 0 153
-0.355419 0.377619 -0.112407 76 0 153
0.413540 0.634568 0.148400 204 51 127
-0.355416 -0.190827 -0.276867 76 0 153
0.239843 -0.670430 -0.243505 153 0 76
-0.070723 -0.385875 -0.300111 76 0 153
0.347592 -0.465535 0.202886 76 0 153
0.336258 -0.822704 -0.055961 76 0 153
0.010973 -0.722056 0.243197 76 0 153
0.081809 0.371180 0.350210 76 0 153
-0.405136 0.738739 0.224494 204 51 127
-0.036798 0.692588 0.379938 204 51 127
-0.069386 -0.798954 -0.060055 153 0 76
0.194773 -0.535202 0.261317 76 0 153
0.044271 -0.499608 0.264605 76 0 153
0.222395 0.470385 -0.300111 76 0 153
0.072997 0.786833 -0.207336 204 51 127
0.346593 -0.488925 0.133003 76 0 153
0.151496 -0.257243 -0.300111 76 0 153
-0.355419 -0.488205 0.055948 76 0 153
0.346593 0.535715 0.119576 76 0 153
0.427035 0.636894 -0.272528 204 51 127
0.387087 0.634513 -0.215239 204 51 127
-0.355284 0.518930 -0.281239 76 0 153
0.198148 0.661460 0.457169 204 51 127
-0.355419 0.292680 0.069877 76 0 153
0.033517 -0.009372 -0.300111 76 0 153
-0.194947 0.730115 -0.422922 255 0 0
-0.355419 0.237590 0.204787 76 0 153
-0.288030 -0.798830 -0.301867 76 0 153
0.314108 -0.801669 0.235476 76 0 153
0.301738 -0.900643 0.225386 76 0 153
0.026739 0.784891 -0.088905 204 51 127
-0.290532 -0.598598 0.255169 76 0 153
0.433521 0.659034 0.450201 204 51 127
-0.195904 -0.691382 0.246006 76 0 153
0.241746 0.154817 -0.300111 76 0 153
0.254592 0.781029 0.000400 204 51 127
-0.355419 -0.143502 0.175584 76 0 153
0.169751 -0.172398 0.297494 76 0 153
0.239370 0.744663 -0.394590 255 0 0
0.213670 -0.914214 0.109347 153 0 76
-0.112410 -0.913796 -0.043588 153 0 76
0.071372 -0.000268 -0.300111 76 0 153
-0.167793 0.645429 -0.347362 204 51 127
0.279042 -0.175935 0.297158 76 0 153
-0.259367 0.682210 0.420614 204 51 127
0.427148 0.637608 -0.334689 204 51 127
-0.267210 -0.914166 -0.035188 153 0 76
0.101351 -0.670223 -0.283126 153 0 76
-0.355419 -0.315762 -0.095579 76 0 153
0.247765 -0.219997 0.292793 76 0 153
0.308892 0.605849 -0.309436 76 0 153
-0.355419 0.290761 0.115671 76 0 153
-0.444365 0.679966 -0.189178 204 51 127
-0.355419 -0.677142 0.072344 76 0 153
0.290617 -0.017981 -0.300111 76 0 153
0.346593 0.525911 -0.142515 76 0 153
0.060918 0.749980 0.173785 204 51 127
-0.120769 0.773092 0.040930 204 51 127
-0.069639 -0.725613 -0.096564 153 0 76
0.229980 -0.807690 0.234892 76 0 153
-0.355419 -0.343650 0.159213 76 0 153
-0.073519 -0.062232 0.308183 76 0 153
0.226339 0.246130 -0.300111 76 0 153
0.335454 0.538730 -0.299251 76 0 153
0.056659 -0.670323 -0.280246 153 0 76
-0.339757 -0.077599 0.306324 76 0 153
-0.249264 0.059224 0.319899 76 0 153
0.121673 0.084770 -0.300111 76 0 153
-0.332761 -0.188995 0.294840 76 0 153
0.388268 0.762187 0.112144 204 51 127
0.346593 0.570541 -0.158681 76 0 153
0.346593 -0.237089 0.179719 76 0 153
0.066771 0.714229 0.311911 204 51 127
0.003202 0.713618 -0.423237 255 0 0
0.347235 -0.597233 0.242178 76 0 153
-0.340616 -0.077709 -0.299822 76 0 153
0.347592 -0.286755 0.018882 76 0 153
-0.355417 0.337636 -0.273195 76 0 153
-0.016890 -0.196446 0.294723 76 0 153
0.333482 0.266168 0.338758 76 0 153
-0.190494 0.763467 0.104439 204 51 127
-0.080291 0.707613 -0.420695 255 0 0
-0.191954 -0.454878 -0.300111 76 0 153
-0.355417 0.583575 -0.037093 76 0 153
-0.019161 -0.913997 0.206721 153 0 76
-0.355419 -0.058559 -0.149982 76 0 153
-0.427674 0.634792 0.316915 204 51 127
0.095102 -0.670439 -0.221150 153 0 76
-0.015289 -0.789812 -0.198042 153 0 76
-0.180200 0.590186 0.371441 76 0 153
-0.295219 -0.819411 -0.070825 76 0 153
0.347056 0.154924 0.258037 76 0 153
0.346593 0.376829 0.128364 76 0 153
0.072777 -0.360474 -0.300111 76 0 153
-0.300201 0.749975 -0.357971 255 0 0
0.347592 -0.756573 0.159997 76 0 153
-0.355419 0.256321 0.261586 76 0 153
0.163471 -0.131477 0.301463 76 0 153
-0.270920 -0.094145 0.305060 76 0 153
-0.355207 -0.822224 0.221702 76 0 153
0.346593 0.052237 -0.119965 76 0 153
-0.095763 0.786746 -0.211361 204 51 127
0.388872 0.769821 0.064917 204 51 127
0.029136 0.015067 0.315675 76 0 153
-0.355419 -0.060991 0.124430 76 0 153
0.244628 -0.801623 -0.218713 153 76 0
0.324661 -0.619864 -0.299955 76 0 153
0.347592 -0.785440 0.181863 76 0 153
0.346593 -0.297163 0.160298 76 0 153
0.436535 0.731953 0.024425 204 51 127
0.012921 -0.455418 -0.300111 76 0 153
-0.187162 -0.608458 0.254644 76 0 153
0.119247 0.720657 0.291889 204 51 127
0.436293 0.662386 0.059609 204 51 127
-0.153218 0.144957 -0.300111 76 0 153
0.347589 -0.357682 -0.277045 76 0 153
-0.108835 0.776161 0.015787 204 51 127
-0.114892 -0.676922 0.247410 76 0 153
-0.110363 0.757264 0.139830 204 51 127
-0.260411 0.105582 -0.300111 76 0 153
0.346593 0.337841 -0.109707 76 0 153
0.436536 0.673401 0.231792 204 51 127
0.248212 -0.632056 -0.300111 76 0 153
0.186320 -0.319448 -0.300111 76 0 153
0.114991 0.050294 -0.300111 76 0 153
0.058444 0.129913 -0.300111 76 0 153
-0.355419 0.095194 -0.224463 76 0 153
-0.355419 0.497996 -0.052538 76 0 153
-0.377871 0.786512 -0.129456 204 51 127
-0.355419 -0.623836 0.037381 76 0 153
-0.095853 0.251109 -0.300111 76 0 153
0.018724 0.701853 -0.410268 255 0 0
0.185919 0.703254 0.347862 204 51 127
-0.302224 -0.027347 -0.300111 76 0 153
-0.258077 -0.914214 0.169422 153 0 76
-0.128308 0.228122 0.336337 76 0 153
-0.197859 -0.350741 -0.300111 76 0 153
-0.355419 -0.181169 -0.067432 76 0 153
-0.123553 -0.801025 0.235539 76 0 153
0.347166 0.118469 0.110768 76 0 153
0.015667 -0.404458 -0.300111 76 0 153
-0.177791 0.638466 0.457038 204 51 127
-0.093741 0.002719 -0.300111 76 0 153
-0.444365 0.729436 -0.160166 204 51 127
0.347592 -0.124853 -0.090602 76 0 153
0.129059 -0.597032 0.255321 76 0 153
0.314874 0.212345 -0.300100 76 0 153
0.215450 0.315480 0.344809 76 0 153
0.333882 -0.035344 -0.299466 76 0 153
0.346593 -0.526964 0.098425 76 0 153
0.109057 -0.650294 -0.300057 76 0 153
0.347592 -0.421647 -0.066408 76 0 153
-0.349086 0.710583 0.324182 204 51 127
0.346696 -0.189999 0.202846 76 0 153
-0.227355 -0.319686 0.282045 76 0 153
-0.214738 -0.235948 -0.300111 76 0 153
-0.355417 -0.531059 -0.269175 76 0 153
0.347592 -0.112611 -0.001631 76 0 153
0.152531 -0.914214 0.043467 153 0 76
0.348724 0.611948 -0.098213 76 0 153
-0.172807 0.104358 -0.300111 76 0 153
0.185061 -0.181129 -0.300111 76 0 153
-0.126155 0.541336 0.366710 76 0 153
0.211961 -0.525165 -0.300111 76 0 153
0.260933 -0.553524 0.259540 76 0 153
-0.355419 0.423351 0.159256 76 0 153
-0.166402 -0.252287 0.288747 76 0 153
-0.355419 -0.170073 -0.245343 76 0 153
0.349420 0.615861 0.351127 76 0 153
0.034953 -0.454233 -0.300111 76 0 153
0.199611 0.787008 -0.193532 204 51 127
0.280859 0.522117 -0.300111 76 0 153
0.346994 -0.633448 -0.289781 76 0 153
0.313147 -0.807901 -0.058478 153 0 76
-0.347962 -0.765791 -0.078598 76 0 153
0.023735 -0.572267 -0.300111 76 0 153
0.304006 0.754111 -0.353351 255 0 0
0.348351 0.729729 -0.402204 255 0 0
-0.156437 -0.670426 -0.271870 153 0 76
-0.191917 -0.197639 0.294047 76 0 153
0.407117 0.701597 -0.408496 255 0 0
0.337286 -0.897777 -0.062330 76 0 153
-0.296358 0.419184 -0.300111 76 0 153
-0.223377 0.329479 0.346166 76 0 153
-0.020490 0.258229 0.339093 76 0 153
-0.270732 -0.035479 -0.300111 76 0 153
-0.186379 -0.787004 -0.184859 153 0 76
-0.166030 0.602183 -0.301979 76 0 153
-0.355419 -0.179439 -0.193417 76 0 153
-0.355419 -0.486185 0.119837 76 0 153
0.116892 0.747078 0.187216 204 51 127
-0.021243 -0.802022 0.235442 76 0 153
0.346593 0.414663 -0.020018 76 0 153
-0.095160 0.423258 0.355260 76 0 153
0.346593 0.456759 -0.036103 76 0 153
-0.152463 -0.844474 -0.056967 153 0 76
0.346705 0.583180 0.068965 76 0 153
0.346953 -0.023818 -0.245356 76 0 153
0.436236 0.654512 0.347885 204 51 127
0.311345 -0.556139 0.259286 76 0 153
-0.353792 -0.661132 -0.170465 76 0 153
-0.140757 -0.226342 0.291263 76 0 153
0.335803 -0.566312 0.256951 76 0 153
0.214420 0.496636 -0.300111 76 0 153
-0.182270 -0.627474 -0.300111 76 0 153
0.332346 -0.752562 -0.295411 153 76 0
-0.305876 0.229333 -0.300111 76 0 153
-0.106063 0.223214 0.335861 76 0 153
-0.046807 0.786573 -0.132028 204 51 127
0.346593 0.013922 -0.055371 76 0 153
0.056320 0.774012 0.030944 204 51 127
-0.355419 -0.398899 -0.098633 76 0 153
-0.355419 0.242779 -0.074644 76 0 153
0.032322 -0.485340 -0.300111 76 0 153
-0.355419 0.540382 0.048651 76 0 153
-0.355419 -0.276109 0.089047 76 0 153
-0.202640 0.031597 -0.300111 76 0 153
-0.129131 0.687418 0.394646 204 51 127
0.435535 0.700957 -0.244538 204 51 127
0.341364 0.786644 -0.205190 204 51 127
-0.350789 0.084001 -0.297589 76 0 153
-0.218506 -0.748253 -0.079815 153 0 76
0.272897 -0.790255 -0.091615 153 76 0
-0.338414 0.068504 -0.300023 76 0 153
-0.292017 -0.918111 -0.185678 76 0 153
0.047295 -0.425744 0.271930 76 0 153
-0.323366 -0.912556 -0.240675 76 0 153
0.347592 -0.370341 0.057784 76 0 153
-0.257431 0.242230 -0.300111 76 0 153
0.217159 -0.082646 -0.300111 76 0 153
-0.127547 -0.713793 0.243991 76 0 153
0.009303 -0.689125 -0.142322 153 0 76
0.333599 0.786686 -0.144000 204 51 127
0.305878 -0.000247 0.314190 76 0 153
0.031875 0.638073 0.456154 204 51 127
-0.166540 0.267605 0.340002 76 0 153
0.347592 -0.171671 -0.044072 76 0 153
-0.355419 -0.334523 0.234830 76 0 153
-0.355419 0.015863 0.157009 76 0 153
-0.063777 0.601345 -0.301749 76 0 153
0.336564 -0.804108 -0.057496 76 0 153
-0.334075 -0.712229 -0.105456 76 0 153
-0.186425 -0.914214 0.033338 153 0 76
0.346593 0.126186 -0.160465 76 0 153
0.152992 0.634854 -0.333318 204 51 127
-0.259270 -0.495358 0.265017 76 0 153
0.218686 0.766327 0.088800 204 51 127
-0.323172 -0.125816 -0.300105 76 0 153
-0.207068 0.783578 -0.278922 204 51 127
0.212933 -0.431912 -0.300111 76 0 153
0.112894 0.750406 0.171808 204 51 127
-0.085121 0.720493 -0.402235 255 0 0
-0.282365 -0.822302 -0.275411 76 0 153
0.265523 0.745298 -0.405236 255 0 0
0.333998 0.784510 -0.084027 204 51 127
-0.387513 0.703452 -0.418032 255 0 0
0.272920 -0.901613 -0.178322 153 76 0
0.066818 -0.910483 0.218084 153 0 76
-0.189963 -0.513271 -0.300111 76 0 153
0.344844 0.635578 0.451728 204 51 127
-0.260884 0.786544 -0.037210 204 51 127
-0.196323 -0.296103 -0.300111 76 0 153
-0.355419 0.108673 0.234505 76 0 153
0.346593 0.229812 -0.177463 76 0 153
0.286148 0.645584 0.462730 204 51 127
-0.069169 0.784016 -0.265562 204 51 127
-0.124039 -0.367397 0.277701 76 0 153
0.346591 0.496426 -0.267786 76 0 153
-0.344708 -0.787023 -0.060679 153 0 76
0.074960 0.457207 0.358531 76 0 153
0.090877 -0.241962 -0.300111 76 0 153
-0.355419 -0.268094 -0.214120 76 0 153
-0.009407 -0.315947 -0.300111 76 0 153
-0.340996 -0.724297 -0.097362 76 0 153
-0.125578 0.634497 0.423391 204 51 127
0.347539 -0.828608 0.113180 76 0 153
0.346593 0.345129 -0.233809 76 0 153
-0.030394 -0.247688 0.289747 76 0 153
