ply
format ascii 1.0
element vertex 1262
property float x
property float y
property float z
property uchar red
property uchar green
property uchar blue
end_header
-0.261202 0.378213 -0.297739 76 0 153
0.342985 -0.872399 0.227241 76 0 153
-0.353048 0.305752 0.319157 76 0 153
-0.353048 0.470036 0.296435 76 0 153
-0.236925 0.784315 -0.131724 204 51 127
-0.045344 -0.096862 0.302443 76 0 153
0.345221 -0.303162 0.067374 76 0 153
0.345221 -0.086355 -0.016853 76 0 153
0.343568 -0.745097 -0.197037 153 76 0
-0.353048 -0.191766 0.032198 76 0 153
0.077291 -0.629951 -0.297739 76 0 153
0.048121 0.067562 0.318387 76 0 153
0.343568 -0.789367 -0.158603 153 76 0
-0.353048 -0.738133 -0.203390 76 0 153
-0.345798 -0.893360 -0.256353 76 0 153
0.274154 -0.716525 -0.175355 153 76 0
0.345221 -0.582060 -0.097050 76 0 153
0.226425 -0.470330 -0.297739 76 0 153
0.434165 0.656962 0.045299 204 51 127
-0.311508 0.032194 0.314957 76 0 153
-0.353048 -0.564437 -0.192003 76 0 153
0.167191 0.034790 -0.297739 76 0 153
0.345221 0.467921 -0.156300 76 0 153
-0.348499 -0.911843 0.009921 153 0 76
0.345221 0.099285 0.061808 76 0 153
-0.334132 -0.624392 -0.297739 76 0 153
0.287660 -0.726873 -0.279474 153 76 0
-0.260340 -0.265582 -0.297739 76 0 153
0.345359 0.719831 -0.421247 255 0 0
0.012523 -0.261796 -0.297739 76 0 153
-0.353048 0.600048 0.002095 76 0 153
0.386782 0.717457 -0.421247 255 0 0
0.345221 -0.304141 0.130775 76 0 153
0.176487 -0.762795 0.237869 76 0 153
-0.353048 -0.238396 0.091748 76 0 153
0.155655 0.703413 -0.405820 255 0 0
-0.191696 0.229888 -0.297739 76 0 153
0.345221 0.101710 -0.152796 76 0 153
0.034889 -0.886264 0.225897 76 0 153
-0.353048 0.586871 0.225312 76 0 153
-0.353048 -0.116221 -0.241057 76 0 153
0.287531 0.089839 -0.297739 76 0 153
0.081129 -0.314387 0.281350 76 0 153
0.363334 0.636869 0.313964 204 51 127
-0.246776 -0.097704 0.302361 76 0 153
-0.175958 -0.668058 -0.212915 153 0 76
-0.353048 0.381926 0.186722 76 0 153
0.345221 0.282059 -0.282126 76 0 153
0.345221 -0.400094 -0.226941 76 0 153
0.345221 0.346105 -0.085426 76 0 153
0.132436 0.776203 -0.003511 204 51 127
0.302160 0.167860 -0.297739 76 0 153
-0.296362 -0.911843 0.157543 153 0 76
-0.353048 -0.438977 0.182784 76 0 153
0.345221 0.308766 0.203522 76 0 153
0.274498 0.296842 -0.297739 76 0 153
-0.279195 -0.737058 -0.166983 76 0 153
0.345221 -0.254675 0.285931 76 0 153
0.285594 -0.907600 -0.236872 153 76 0
-0.353048 -0.521211 0.073911 76 0 153
-0.253616 0.092276 0.320783 76 0 153
0.345221 -0.518969 0.124984 76 0 153
0.345221 -0.385373 0.150595 76 0 153
-0.250802 -0.174204 -0.297739 76 0 153
-0.353048 -0.328093 -0.068012 76 0 153
-0.259080 0.278615 -0.297739 76 0 153
0.345221 0.411922 0.221588 76 0 153
0.345221 0.378859 0.250932 76 0 153
0.345221 -0.486990 0.229249 76 0 153
-0.135520 0.509095 -0.297739 76 0 153
-0.058308 -0.611279 -0.297739 76 0 153
0.134518 0.676809 0.416509 204 51 127
0.434165 0.715086 -0.326308 204 51 127
-0.314414 -0.824052 0.231929 76 0 153
-0.322916 0.760561 -0.340060 204 51 127
-0.053022 -0.911843 0.042614 153 0 76
-0.072886 0.220532 -0.297739 76 0 153
-0.353048 -0.315899 -0.237402 76 0 153
0.028552 -0.802931 -0.172908 153 0 76
-0.353048 0.066288 0.268195 76 0 153
0.285302 -0.696796 0.244269 76 0 153
0.345221 -0.669607 0.017332 76 0 153
-0.296286 -0.189845 -0.297739 76 0 153
0.407932 0.750649 0.160775 204 51 127
-0.301795 0.611581 -0.298639 76 0 153
-0.149942 -0.844522 -0.053954 153 0 76
-0.270264 -0.911843 0.055407 153 0 76
-0.120449 -0.312039 0.281578 76 0 153
-0.205261 0.784697 -0.209147 204 51 127
-0.353048 -0.450756 -0.070552 76 0 153
0.221972 0.759915 0.112109 204 51 127
-0.353048 0.496441 -0.100742 76 0 153
-0.308072 -0.478705 -0.297739 76 0 153
-0.202411 -0.163253 -0.297739 76 0 153
-0.177482 -0.911843 -0.055881 153 0 76
0.234143 0.782454 -0.264795 204 51 127
0.047257 0.156890 -0.297739 76 0 153
0.345221 -0.622108 -0.026875 76 0 153
-0.039882 0.189661 0.330226 76 0 153
0.015227 -0.580380 0.255558 76 0 153
0.265384 0.017343 0.313517 76 0 153
-0.132234 -0.668058 -0.230724 153 0 76
-0.353048 -0.498853 -0.152178 76 0 153
0.345221 0.478718 0.309948 76 0 153
0.304415 0.474074 0.357805 76 0 153
0.248426 0.451512 -0.297739 76 0 153
0.345221 -0.728870 0.091002 76 0 153
0.068248 0.707307 -0.404134 255 0 0
0.434165 0.725430 -0.232460 204 51 127
-0.353048 -0.227014 0.220162 76 0 153
-0.294560 0.676530 0.417229 204 51 127
-0.287671 -0.131911 0.299044 76 0 153
0.091116 0.478805 -0.297739 76 0 153
-0.441993 0.687279 0.183985 204 51 127
0.058949 0.288926 -0.297739 76 0 153
-0.353048 0.020394 0.127480 76 0 153
-0.353048 0.161841 0.254746 76 0 153
0.345221 0.207353 -0.020912 76 0 153
-0.353048 -0.268592 0.142157 76 0 153
0.102338 0.778832 -0.311340 204 51 127
-0.191159 -0.625318 -0.297739 76 0 153
0.345221 -0.032951 0.132188 76 0 153
-0.441993 0.744957 -0.188561 204 51 127
0.236746 -0.395501 -0.297739 76 0 153
-0.245944 0.770896 0.039466 204 51 127
-0.353048 -0.895802 -0.046910 76 0 153
-0.353048 0.519296 -0.283311 76 0 153
-0.353048 -0.364408 0.236963 76 0 153
0.388581 0.636869 0.371469 204 51 127
0.374891 0.636869 0.182320 204 51 127
0.325188 -0.909231 -0.069762 76 0 153
0.345221 -0.906730 0.071133 153 0 76
0.345221 -0.169032 0.281280 76 0 153
-0.353048 0.436920 0.240943 76 0 153
0.189315 0.783414 -0.109547 204 51 127
0.171500 0.476932 0.358082 76 0 153
-0.249120 0.667995 0.439262 204 51 127
-0.353048 0.477098 -0.205501 76 0 153
-0.441993 0.709645 0.226383 204 51 127
0.215665 -0.558096 0.257718 76 0 153
0.345221 -0.461190 0.130935 76 0 153
0.160306 -0.668058 -0.241251 153 0 76
0.423661 0.703413 -0.352263 204 51 127
-0.056337 0.685385 -0.348693 204 51 127
-0.067146 -0.911843 -0.045008 153 0 76
-0.145969 0.386078 -0.297739 76 0 153
0.199136 0.772951 0.022822 204 51 127
-0.353048 -0.887044 -0.193150 76 0 153
-0.073018 0.016905 -0.297739 76 0 153
0.245893 -0.825427 -0.218249 153 76 0
0.345221 -0.562025 -0.294994 76 0 153
0.345221 -0.888646 0.179843 76 0 153
0.073278 0.784718 -0.168548 204 51 127
-0.353048 -0.251584 0.046469 76 0 153
-0.081629 -0.761582 -0.069551 153 0 76
-0.326002 -0.257281 0.286888 76 0 153
0.098819 0.468481 0.357262 76 0 153
0.345221 -0.113862 0.087803 76 0 153
-0.020976 0.783307 -0.244330 204 51 127
0.343568 -0.830915 -0.163006 153 76 0
-0.162571 -0.477581 0.265525 76 0 153
0.342273 0.150854 -0.297739 76 0 153
-0.259839 0.231804 0.334313 76 0 153
0.066407 0.513027 -0.297739 76 0 153
0.251653 -0.750719 -0.232241 153 76 0
0.010448 0.686816 -0.348693 204 51 127
0.345221 0.174958 0.141286 76 0 153
0.343568 -0.823515 -0.241802 153 76 0
0.062386 0.698999 0.353902 204 51 127
-0.243218 -0.382832 -0.297739 76 0 153
0.434165 0.691331 -0.131837 204 51 127
0.050314 0.015047 -0.297739 76 0 153
-0.353048 -0.544874 -0.070144 76 0 153
0.345221 0.201728 0.200637 76 0 153
-0.104284 0.780518 -0.055799 204 51 127
0.345221 0.423432 0.332218 76 0 153
-0.011211 -0.911843 0.063696 153 0 76
-0.006338 -0.607300 -0.297739 76 0 153
0.297489 -0.783992 -0.252778 153 76 0
0.345221 -0.441200 0.034378 76 0 153
-0.136875 -0.724471 -0.093949 153 0 76
0.345221 0.462446 -0.259383 76 0 153
0.112376 0.106384 -0.297739 76 0 153
-0.315418 -0.638421 0.249929 76 0 153
0.343568 -0.767154 -0.096813 153 76 0
-0.353048 0.034341 0.006427 76 0 153
-0.095222 -0.900663 -0.066418 153 0 76
-0.353048 -0.312485 -0.090650 76 0 153
0.056052 -0.764348 -0.068147 153 0 76
-0.309513 0.389088 0.349564 76 0 153
0.345221 0.096549 0.162347 76 0 153
-0.096587 -0.757211 0.238411 76 0 153
-0.328119 -0.813088 -0.121729 76 0 153
-0.405594 0.773554 -0.325374 204 51 127
0.196527 0.686003 0.392035 204 51 127
0.122741 -0.724374 0.241595 76 0 153
0.289872 -0.179631 -0.297739 76 0 153
-0.285950 -0.762808 -0.292335 76 0 153
0.183842 -0.153027 -0.297739 76 0 153
-0.277124 0.719277 -0.404134 255 0 0
0.345221 0.156201 0.214568 76 0 153
0.009349 0.783713 -0.234592 204 51 127
0.028939 0.052041 0.316882 76 0 153
0.345221 -0.198451 -0.022310 76 0 153
0.098024 0.705331 0.335322 204 51 127
-0.353048 0.346223 0.301176 76 0 153
-0.353048 -0.064174 -0.131667 76 0 153
0.345221 -0.515914 -0.291300 76 0 153
0.139398 -0.133819 0.298859 76 0 153
-0.353048 -0.320901 0.216064 76 0 153
0.338029 -0.759357 -0.240019 153 76 0
0.345221 0.393179 0.005859 76 0 153
-0.358918 0.636869 0.286390 76 0 153
0.157764 0.096854 -0.297739 76 0 153
0.413119 0.636869 -0.075299 204 51 127
-0.058514 0.710781 -0.421247 255 0 0
0.345221 0.179062 -0.143602 76 0 153
0.287476 -0.693354 -0.128527 153 76 0
0.285515 0.611596 0.371140 76 0 153
-0.319081 -0.772900 -0.067295 76 0 153
0.032928 0.374437 0.348144 76 0 153
-0.337976 0.777366 -0.316736 204 51 127
-0.283519 -0.674364 -0.170755 153 0 76
0.266424 -0.881922 0.226318 76 0 153
0.165019 -0.403920 0.272668 76 0 153
-0.240324 0.779602 -0.044621 204 51 127
-0.007424 0.534801 0.363693 76 0 153
-0.328434 -0.508974 0.262482 76 0 153
0.345221 -0.224530 -0.113839 76 0 153
0.018192 -0.466427 0.266607 76 0 153
-0.264747 -0.242666 0.288305 76 0 153
0.156901 -0.756611 -0.072074 153 0 76
-0.112581 -0.725517 0.241484 76 0 153
-0.129716 0.768368 0.059944 204 51 127
-0.353048 -0.227501 0.117591 76 0 153
-0.270357 -0.464312 -0.297739 76 0 153
-0.020211 -0.814111 -0.180129 153 0 76
-0.353048 0.572296 0.094291 76 0 153
-0.019227 0.222850 -0.297739 76 0 153
0.105462 -0.403771 -0.297739 76 0 153
0.266447 -0.801327 -0.120345 153 76 0
0.329162 -0.869948 -0.090741 153 76 0
-0.353048 -0.784331 -0.192277 76 0 153
-0.282034 -0.863073 -0.213619 76 0 153
-0.295425 -0.911843 0.203194 153 0 76
-0.353048 0.128387 0.125257 76 0 153
0.087941 0.321277 -0.297739 76 0 153
-0.336598 -0.315438 -0.297739 76 0 153
-0.353048 -0.547974 0.252827 76 0 153
0.128650 -0.911843 0.087447 153 0 76
0.161146 0.781205 -0.287383 204 51 127
-0.419638 0.694102 0.368269 204 51 127
-0.175369 -0.905510 0.224031 76 0 153
0.272983 -0.047577 -0.297739 76 0 153
-0.353048 0.518533 0.290151 76 0 153
-0.353048 -0.662168 0.041330 76 0 153
0.229723 0.636869 -0.329331 204 51 127
-0.386098 0.636869 0.460597 204 51 127
-0.353048 -0.637883 0.113074 76 0 153
0.345221 0.349693 0.149090 76 0 153
-0.266429 0.440471 0.354547 76 0 153
-0.113001 -0.141423 0.298122 76 0 153
-0.080803 0.773201 0.020801 204 51 127
-0.353048 -0.088636 -0.075346 76 0 153
-0.027954 0.711071 0.316272 204 51 127
-0.038437 0.765652 0.077436 204 51 127
-0.329772 -0.773404 -0.306136 76 0 153
0.345221 0.357526 -0.021352 76 0 153
0.319132 -0.848054 -0.139414 153 76 0
0.345221 -0.598216 -0.181293 76 0 153
0.159954 -0.889073 -0.061895 153 0 76
-0.353048 -0.742130 -0.075633 76 0 153
-0.185338 -0.092277 -0.297739 76 0 153
0.345221 0.315918 -0.219201 76 0 153
-0.326524 -0.859756 -0.054801 153 0 76
-0.306762 -0.052809 0.306714 76 0 153
0.180178 0.636869 0.441095 204 51 127
-0.244279 0.640989 -0.348693 204 51 127
0.093347 0.724866 -0.365806 255 0 0
-0.142182 0.354860 0.346245 76 0 153
0.345221 -0.902434 0.159328 76 0 153
-0.353048 0.281639 -0.123466 76 0 153
-0.340742 -0.139622 0.298296 76 0 153
0.112109 -0.769026 0.237265 76 0 153
0.023284 -0.352790 -0.297739 76 0 153
0.238811 0.741264 0.204846 204 51 127
-0.353048 -0.471664 0.170059 76 0 153
0.027633 0.236516 0.334770 76 0 153
-0.167593 0.776541 -0.007245 204 51 127
-0.353048 0.349907 -0.073289 76 0 153
0.316268 -0.668058 -0.267683 153 0 76
-0.076512 -0.911843 0.046658 153 0 76
-0.293093 0.451020 -0.297739 76 0 153
0.345221 0.244439 0.174556 76 0 153
-0.353048 -0.724903 0.010324 76 0 153
0.048622 -0.146127 -0.297739 76 0 153
-0.065901 0.461339 0.356570 76 0 153
0.232518 0.695691 0.363608 204 51 127
-0.058601 0.321951 -0.297739 76 0 153
-0.386744 0.741364 -0.365776 255 0 0
0.288583 0.619074 -0.313620 76 0 153
0.266770 -0.911843 -0.028322 153 0 76
-0.301116 -0.697386 -0.126806 153 0 76
0.187204 -0.327129 -0.297739 76 0 153
-0.016994 -0.156056 -0.297739 76 0 153
-0.100906 -0.781188 -0.061234 153 0 76
0.250313 -0.523733 -0.297739 76 0 153
-0.019134 -0.458668 -0.297739 76 0 153
0.345221 0.536630 0.188674 76 0 153
-0.415163 0.665106 0.446720 204 51 127
0.156031 -0.386857 -0.297739 76 0 153
-0.353048 0.313194 0.259563 76 0 153
-0.353048 0.466406 0.049841 76 0 153
0.188357 -0.736948 -0.083847 153 0 76
-0.353048 0.161669 0.207544 76 0 153
0.327611 -0.145332 -0.297739 76 0 153
-0.164825 0.666140 0.444051 204 51 127
0.345221 0.148644 0.036017 76 0 153
0.345221 -0.065226 -0.099700 76 0 153
0.198129 0.660181 -0.348693 204 51 127
0.345221 0.001207 -0.110986 76 0 153
-0.004210 -0.724332 -0.094055 153 0 76
-0.061849 -0.668104 0.247051 76 0 153
0.197476 -0.314592 0.281330 76 0 153
0.345221 0.570356 0.036348 76 0 153
0.143929 0.646318 0.462535 204 51 127
-0.353048 -0.561529 -0.234991 76 0 153
-0.183886 0.033140 -0.297739 76 0 153
0.161936 -0.668058 -0.279075 153 0 76
-0.353048 -0.646197 0.009852 76 0 153
-0.441993 0.728928 -0.384937 255 0 0
0.266327 -0.183719 -0.297739 76 0 153
0.252242 0.005386 -0.297739 76 0 153
0.345221 0.559956 -0.272682 76 0 153
-0.324158 -0.532243 -0.297739 76 0 153
-0.017264 0.479591 0.358340 76 0 153
-0.409954 0.636869 -0.189400 204 51 127
-0.323436 0.229860 0.334124 76 0 153
-0.151115 0.721000 0.282672 204 51 127
0.054716 -0.120353 0.300165 76 0 153
0.345221 0.330408 0.048450 76 0 153
-0.353048 -0.161569 0.272624 76 0 153
0.345221 -0.583335 0.019565 76 0 153
-0.039447 -0.740894 -0.080652 153 0 76
0.302888 -0.824976 -0.053954 153 0 76
-0.320001 -0.820114 -0.053954 153 0 76
0.311657 -0.921041 -0.158104 153 76 0
0.343623 -0.021355 0.309764 76 0 153
0.143875 0.171262 0.328442 76 0 153
-0.441993 0.641431 0.436943 204 51 127
-0.095316 -0.453478 -0.297739 76 0 153
0.345428 0.675535 0.419797 204 51 127
-0.353048 -0.885376 0.057434 76 0 153
-0.277080 -0.787954 -0.059439 153 0 76
0.245528 -0.573898 -0.297739 76 0 153
-0.085492 -0.170515 0.295301 76 0 153
-0.146593 0.420894 -0.297739 76 0 153
-0.104416 0.732680 -0.365806 255 0 0
-0.353048 0.302560 -0.078786 76 0 153
-0.353048 -0.145721 0.186923 76 0 153
0.165481 0.689584 0.381527 204 51 127
0.196383 -0.786417 -0.188856 153 0 76
-0.353048 -0.687105 -0.019579 76 0 153
-0.109809 -0.860045 -0.054848 153 0 76
0.315975 0.636869 -0.347647 204 51 127
-0.126573 -0.897375 0.224819 76 0 153
-0.304338 -0.851456 -0.077887 76 0 153
-0.123827 -0.015361 -0.297739 76 0 153
-0.304712 0.704152 0.338781 204 51 127
0.208687 0.710030 0.319792 204 51 127
-0.305326 -0.737795 0.240293 76 0 153
-0.402914 0.782245 -0.269815 204 51 127
0.434165 0.773504 -0.240121 204 51 127
-0.210928 0.746516 -0.409830 255 0 0
-0.353048 0.145451 0.278513 76 0 153
-0.057541 -0.693157 -0.128772 153 0 76
-0.353048 -0.425261 -0.113478 76 0 153
-0.219777 -0.508942 0.262485 76 0 153
-0.353048 0.616537 0.099624 76 0 153
0.257968 -0.798138 -0.255106 153 76 0
-0.276646 0.495746 -0.297739 76 0 153
0.210473 0.321190 0.342980 76 0 153
-0.353048 0.316286 0.178163 76 0 153
0.345221 0.490458 0.062018 76 0 153
0.345221 -0.196166 -0.117133 76 0 153
0.217333 0.758586 -0.341420 204 51 127
-0.009250 0.729361 -0.421247 255 0 0
-0.102838 0.488235 -0.297739 76 0 153
0.184883 0.423717 0.352922 76 0 153
0.111881 0.319451 -0.297739 76 0 153
-0.237685 0.693298 -0.348693 204 51 127
-0.102827 -0.869026 0.227568 76 0 153
-0.441993 0.771886 -0.262684 204 51 127
-0.033675 -0.444852 0.268699 76 0 153
0.434116 0.763828 0.088463 204 51 127
0.326628 -0.772371 -0.304107 153 76 0
-0.044129 0.722458 -0.365806 255 0 0
0.120120 -0.371524 0.275810 76 0 153
0.345221 -0.415490 0.211731 76 0 153
-0.131809 0.062268 0.317873 76 0 153
-0.086162 0.636869 0.431074 204 51 127
0.004856 -0.024134 0.309495 76 0 153
-0.107750 -0.312778 -0.297739 76 0 153
-0.326568 0.783556 -0.238364 204 51 127
-0.353048 -0.631258 -0.213867 76 0 153
0.195108 0.271732 0.338185 76 0 153
0.277598 -0.880411 -0.058515 153 0 76
-0.353048 0.424019 0.313088 76 0 153
-0.077551 -0.614634 0.252236 76 0 153
0.033312 0.762183 0.098402 204 51 127
-0.300093 0.081220 0.319711 76 0 153
0.292215 -0.198011 0.292635 76 0 153
-0.353048 -0.097472 0.213334 76 0 153
0.109780 -0.668058 -0.292075 76 0 153
-0.049080 0.780512 -0.295741 204 51 127
-0.196294 -0.008719 -0.297739 76 0 153
-0.299977 0.729037 -0.421247 255 0 0
0.181131 -0.026560 0.309260 76 0 153
-0.049902 -0.668814 -0.191679 153 0 76
0.005053 0.784698 -0.206702 204 51 127
-0.353048 -0.431836 -0.248813 76 0 153
0.246743 0.779049 -0.310293 204 51 127
-0.068738 0.636869 -0.315794 76 0 153
-0.175044 -0.230500 -0.297739 76 0 153
-0.353048 0.264206 -0.166030 76 0 153
0.237285 -0.911843 0.203420 153 0 76
0.345221 0.304577 -0.273508 76 0 153
0.017106 0.208578 -0.297739 76 0 153
-0.006974 0.636869 -0.323724 76 0 153
0.295089 -0.228330 -0.297739 76 0 153
0.207464 0.242141 -0.297739 76 0 153
-0.151418 -0.811619 -0.198493 153 0 76
0.344184 -0.577136 0.255872 76 0 153
-0.353048 0.314451 -0.110901 76 0 153
0.287731 -0.789793 -0.058952 153 0 76
0.124574 -0.222777 0.290233 76 0 153
-0.429131 0.742375 0.200424 204 51 127
0.162048 0.226093 -0.297739 76 0 153
0.316497 0.542423 0.364433 76 0 153
0.168827 0.705509 0.334798 204 51 127
0.030216 0.330236 0.343857 76 0 153
0.268162 0.702329 -0.348693 204 51 127
0.095542 0.782019 -0.075200 204 51 127
-0.062784 0.725708 0.266742 204 51 127
0.161586 -0.306341 -0.297739 76 0 153
0.125032 -0.335804 -0.297739 76 0 153
-0.192809 0.743813 0.193638 204 51 127
-0.066665 0.746882 -0.347187 255 0 0
-0.192937 -0.397960 0.273246 76 0 153
0.345221 0.289729 0.059673 76 0 153
-0.357690 0.782102 -0.273262 204 51 127
0.127507 0.747783 0.174554 204 51 127
-0.270723 -0.764834 0.237672 76 0 153
-0.353048 0.380251 0.014191 76 0 153
-0.141208 0.666999 0.441834 204 51 127
-0.015591 -0.599076 0.253745 76 0 153
-0.351988 -0.055610 0.306443 76 0 153
0.281263 -0.528607 -0.297739 76 0 153
-0.353048 -0.856606 -0.266336 76 0 153
0.342672 -0.105868 0.301570 76 0 153
0.345221 0.263050 0.230673 76 0 153
-0.273829 0.008432 -0.297739 76 0 153
-0.109030 0.294967 0.340437 76 0 153
0.085670 -0.888852 -0.061809 153 0 76
0.160188 0.775874 -0.000850 204 51 127
0.160098 0.615369 0.371506 76 0 153
-0.092140 -0.668058 -0.205825 153 0 76
-0.088327 -0.668058 -0.269220 153 0 76
-0.346643 -0.391475 0.273875 76 0 153
0.120588 0.686419 -0.348693 204 51 127
0.345221 0.217041 0.218083 76 0 153
-0.353048 -0.253844 -0.002141 76 0 153
-0.417689 0.742018 -0.349075 255 0 0
0.153381 0.262458 -0.297739 76 0 153
-0.353048 -0.094330 -0.209163 76 0 153
-0.353048 0.267578 0.210433 76 0 153
0.090374 0.667917 0.439462 204 51 127
0.126083 0.758320 0.121750 204 51 127
0.297484 0.511349 -0.297739 76 0 153
-0.332762 -0.588493 0.254771 76 0 153
0.345221 -0.616647 0.139008 76 0 153
0.245893 -0.744947 -0.154142 153 76 0
0.345221 -0.055580 0.287415 76 0 153
0.345221 -0.428972 -0.097295 76 0 153
-0.441993 0.660742 -0.164813 204 51 127
0.234464 0.101909 0.321717 76 0 153
0.345221 0.538892 -0.118293 76 0 153
0.345221 0.536607 0.165491 76 0 153
-0.353048 -0.542905 0.097912 76 0 153
-0.353048 -0.626604 0.053180 76 0 153
-0.149591 0.758242 0.122221 204 51 127
-0.353048 0.488043 0.140463 76 0 153
0.345221 0.618363 0.051276 76 0 153
0.099995 -0.816154 -0.187399 153 0 76
-0.159349 0.446924 -0.297739 76 0 153
0.345221 -0.442399 -0.277434 76 0 153
0.014409 0.782003 -0.074815 204 51 127
-0.105724 -0.828418 0.231506 76 0 153
-0.353048 -0.100971 0.282686 76 0 153
-0.418854 0.740339 -0.418738 255 0 0
-0.042671 -0.796982 -0.057045 153 0 76
-0.100052 0.759970 -0.340524 204 51 127
0.345221 -0.484689 0.092026 76 0 153
0.345221 0.495879 0.290995 76 0 153
0.345221 0.434675 0.291669 76 0 153
0.434165 0.763053 -0.207018 204 51 127
-0.155576 -0.670183 -0.186517 153 0 76
0.345221 -0.278777 -0.285719 76 0 153
-0.238704 -0.670803 -0.184182 153 0 76
0.280178 0.501898 0.360503 76 0 153
-0.149675 -0.551097 0.258397 76 0 153
0.217422 0.133436 -0.297739 76 0 153
-0.268356 -0.161097 0.296214 76 0 153
-0.023531 0.139824 -0.297739 76 0 153
-0.025546 -0.911843 -0.016918 153 0 76
0.098610 0.636869 0.458258 204 51 127
-0.339966 0.345215 -0.297739 76 0 153
-0.260033 -0.743696 -0.078630 153 0 76
0.238651 0.409790 -0.297739 76 0 153
-0.148543 0.412223 0.351808 76 0 153
-0.353048 0.010208 0.258079 76 0 153
0.345221 -0.555532 0.199033 76 0 153
0.321519 -0.217713 0.290724 76 0 153
0.251563 0.720837 -0.421247 255 0 0
-0.353048 0.114973 -0.266888 76 0 153
-0.322186 -0.685061 0.245407 76 0 153
-0.173688 0.576416 -0.297739 76 0 153
-0.353048 0.114191 -0.165914 76 0 153
0.345221 -0.398931 0.002193 76 0 153
0.287765 -0.417848 0.271318 76 0 153
0.241061 0.093982 -0.297739 76 0 153
0.200110 0.436644 -0.297739 76 0 153
-0.175839 -0.722839 -0.095272 153 0 76
0.345221 0.347869 0.018973 76 0 153
-0.166117 -0.911843 -0.035637 153 0 76
-0.339530 0.130449 -0.297739 76 0 153
0.324559 -0.619336 0.251780 76 0 153
0.292821 -0.823255 -0.251022 153 76 0
0.434165 0.763319 0.000552 204 51 127
-0.266633 -0.608095 0.252870 76 0 153
-0.352986 -0.691930 -0.193100 76 0 153
0.104612 0.779435 -0.042584 204 51 127
0.345221 -0.734248 0.038262 76 0 153
-0.001358 -0.383580 0.274641 76 0 153
0.345221 0.151676 -0.058548 76 0 153
0.345221 -0.565547 -0.075264 76 0 153
-0.353048 0.476395 -0.257344 76 0 153
-0.255373 -0.846851 -0.169028 76 0 153
0.278587 0.657680 -0.348693 204 51 127
-0.100481 0.686133 0.391652 204 51 127
-0.112844 0.602976 0.370304 76 0 153
0.153495 -0.911843 0.190023 153 0 76
-0.201441 -0.668058 -0.215454 153 0 76
-0.353048 -0.752561 -0.274021 76 0 153
-0.059115 -0.129054 -0.297739 76 0 153
0.253522 0.787483 -0.114925 204 51 127
-0.089671 -0.071724 -0.297739 76 0 153
0.302961 -0.897243 0.224832 76 0 153
0.168587 -0.247011 -0.297739 76 0 153
-0.353048 -0.022678 -0.058670 76 0 153
-0.008998 -0.734686 0.240595 76 0 153
0.080178 -0.219755 -0.297739 76 0 153
0.345221 -0.099304 -0.283753 76 0 153
-0.353048 0.520341 0.243988 76 0 153
0.222241 -0.042741 0.307691 76 0 153
-0.353048 -0.742267 0.235638 76 0 153
0.188481 -0.696205 -0.125007 153 0 76
0.132842 -0.817079 -0.053954 153 0 76
0.012021 0.553763 0.365532 76 0 153
-0.117881 -0.786286 -0.187028 153 0 76
0.345221 0.224280 0.033013 76 0 153
0.245893 -0.835145 -0.196374 153 76 0
-0.168697 0.224001 0.333556 76 0 153
0.345221 0.444842 -0.127936 76 0 153
-0.353048 0.189233 0.311179 76 0 153
0.345221 -0.663500 -0.162663 76 0 153
0.276824 0.746322 0.181578 204 51 127
-0.318068 0.760435 0.108965 204 51 127
0.345221 0.460560 0.180635 76 0 153
0.345221 -0.351260 -0.291082 76 0 153
-0.025162 -0.668058 -0.238737 153 0 76
-0.280101 0.783771 -0.118335 204 51 127
0.286375 -0.108908 0.301275 76 0 153
0.094437 0.366064 -0.297739 76 0 153
-0.123641 0.703243 -0.348693 204 51 127
0.253737 -0.788303 0.235396 76 0 153
-0.353048 -0.534624 -0.179295 76 0 153
0.291103 0.566047 -0.297739 76 0 153
0.134924 0.713286 -0.365806 255 0 0
0.345221 -0.385050 -0.086372 76 0 153
-0.279249 0.757908 0.124241 204 51 127
0.345221 -0.070523 0.246093 76 0 153
-0.353048 -0.719348 -0.218654 76 0 153
-0.259432 -0.556631 -0.297739 76 0 153
0.076752 0.454651 -0.297739 76 0 153
0.434165 0.682745 0.158499 204 51 127
0.124053 0.542615 -0.297739 76 0 153
-0.268817 0.725961 0.290068 204 51 127
-0.170423 -0.911843 0.125991 153 0 76
-0.353048 0.063880 0.150719 76 0 153
-0.353048 0.577745 -0.112956 76 0 153
0.285156 -0.754072 -0.073364 153 76 0
0.311773 0.636869 0.400042 204 51 127
-0.353048 -0.227629 -0.174804 76 0 153
-0.350565 0.208141 0.332018 76 0 153
-0.096346 0.157223 -0.297739 76 0 153
0.079374 -0.805718 -0.054728 153 0 76
-0.295465 -0.706441 -0.256868 76 0 153
0.295438 0.781986 -0.074396 204 51 127
-0.353048 -0.806825 0.167599 76 0 153
-0.262088 0.686000 0.412397 204 51 127
0.345221 -0.891519 0.021810 76 0 153
-0.353048 -0.463315 0.251564 76 0 153
0.317035 0.636869 0.439294 204 51 127
0.025828 -0.911843 0.023811 153 0 76
0.345221 0.612172 -0.208365 76 0 153
-0.353048 0.020800 -0.065119 76 0 153
-0.353048 -0.708673 0.053924 76 0 153
0.050722 0.492852 0.359626 76 0 153
-0.353048 0.320077 0.210968 76 0 153
0.024182 0.765878 -0.335387 204 51 127
-0.183848 0.784463 -0.135373 204 51 127
0.045277 -0.763256 0.237824 76 0 153
0.324881 -0.818574 -0.053954 76 0 153
-0.191292 -0.389004 -0.297739 76 0 153
-0.409034 0.684166 0.397425 204 51 127
0.148708 0.321421 0.343003 76 0 153
-0.353048 -0.019873 -0.012976 76 0 153
0.013190 -0.264785 0.286160 76 0 153
-0.005939 -0.005001 -0.297739 76 0 153
-0.274982 -0.668058 -0.203582 153 0 76
0.345221 0.336303 0.226283 76 0 153
0.180994 0.777590 -0.020055 204 51 127
0.174128 0.361153 -0.297739 76 0 153
-0.053529 0.434337 0.353952 76 0 153
0.307467 0.703413 -0.407016 255 0 0
-0.223771 0.612561 -0.297739 76 0 153
0.007064 0.534221 -0.297739 76 0 153
-0.353048 0.101406 -0.013890 76 0 153
-0.037296 0.703413 -0.351906 204 51 127
-0.353048 0.184712 0.254957 76 0 153
-0.098667 -0.911843 0.199119 153 0 76
-0.306924 -0.369942 -0.297739 76 0 153
-0.353048 -0.104725 -0.139101 76 0 153
0.337975 0.604689 -0.297739 76 0 153
0.379330 0.651000 0.462535 204 51 127
0.254662 0.319239 -0.297739 76 0 153
0.393896 0.636869 0.277902 204 51 127
0.406938 0.780856 -0.059921 204 51 127
-0.353048 0.244446 -0.267311 76 0 153
-0.218384 -0.258721 -0.297739 76 0 153
0.267627 0.636869 -0.317164 76 0 153
-0.353048 -0.272394 0.226067 76 0 153
-0.353048 -0.552718 -0.091607 76 0 153
0.326106 0.764478 0.084533 204 51 127
-0.283635 -0.866792 -0.261825 76 0 153
0.345221 0.088491 -0.108906 76 0 153
0.345221 -0.327487 0.087022 76 0 153
-0.353048 0.327578 0.109361 76 0 153
0.376804 0.768932 0.055373 204 51 127
-0.166659 0.780263 -0.298741 204 51 127
-0.092421 0.571324 -0.297739 76 0 153
-0.353048 0.545532 0.037419 76 0 153
0.340340 0.556435 0.365791 76 0 153
-0.353048 -0.713642 0.106788 76 0 153
0.345221 -0.604676 0.054852 76 0 153
0.141899 0.072399 0.318856 76 0 153
0.313502 0.700404 0.349778 204 51 127
0.345221 -0.086115 -0.177641 76 0 153
-0.270418 -0.653269 0.248490 76 0 153
0.345221 -0.858847 0.146462 76 0 153
0.214385 0.776824 -0.010705 204 51 127
-0.353048 -0.109639 0.010142 76 0 153
-0.353048 -0.043062 0.260170 76 0 153
-0.121758 -0.738604 -0.082503 153 0 76
-0.353048 -0.040131 0.070262 76 0 153
0.155035 -0.325622 0.280261 76 0 153
-0.168614 0.782975 -0.252298 204 51 127
0.306252 -0.315017 0.281289 76 0 153
-0.353048 0.232710 0.254533 76 0 153
-0.018287 -0.652991 -0.297739 76 0 153
-0.177365 -0.560821 -0.297739 76 0 153
0.032853 0.571755 -0.297739 76 0 153
-0.353048 -0.852767 -0.224570 76 0 153
0.274154 -0.717172 -0.228712 153 76 0
-0.092174 -0.911843 0.144446 153 0 76
-0.353048 -0.306720 0.060376 76 0 153
0.263305 0.075491 0.319155 76 0 153
-0.013346 -0.167293 0.295614 76 0 153
-0.353048 -0.783739 -0.271680 76 0 153
-0.031331 -0.911843 -0.046788 153 0 76
0.345221 0.573147 0.160935 76 0 153
0.343568 -0.804093 -0.119598 153 76 0
0.345221 -0.534535 -0.091798 76 0 153
0.286042 0.602981 -0.297739 76 0 153
-0.216832 -0.188887 -0.297739 76 0 153
0.299017 -0.894493 -0.265881 153 76 0
-0.280884 0.104034 0.321923 76 0 153
0.345221 0.285028 -0.171985 76 0 153
-0.353048 0.052868 -0.130869 76 0 153
-0.353048 -0.791472 0.212258 76 0 153
-0.353048 -0.872309 -0.111759 76 0 153
-0.325483 -0.857109 -0.150601 76 0 153
-0.441993 0.670498 0.310651 204 51 127
-0.218529 -0.595746 0.254067 76 0 153
-0.116850 0.305347 -0.297739 76 0 153
0.345221 0.611149 -0.063313 76 0 153
0.345221 -0.272866 -0.201991 76 0 153
-0.353048 -0.768679 -0.210418 76 0 153
0.042728 -0.067892 -0.297739 76 0 153
-0.023403 0.422375 -0.297739 76 0 153
-0.291017 0.057642 0.317425 76 0 153
0.140967 0.739564 0.211608 204 51 127
-0.353048 0.513250 -0.167361 76 0 153
-0.353048 -0.040590 -0.219822 76 0 153
-0.353048 -0.097349 0.043140 76 0 153
0.345221 -0.525277 0.206528 76 0 153
-0.353048 0.099489 -0.105854 76 0 153
-0.088343 -0.219406 0.290560 76 0 153
0.352512 0.721358 -0.365806 255 0 0
0.278987 -0.455831 0.267635 76 0 153
0.030517 -0.911843 -0.012275 153 0 76
0.053282 0.397324 0.350363 76 0 153
0.236267 -0.911843 0.157497 153 0 76
0.193396 0.533855 0.363602 76 0 153
-0.353048 0.087453 -0.199768 76 0 153
0.114787 0.650796 -0.348693 204 51 127
0.345221 0.440659 0.313586 76 0 153
0.288929 0.636869 0.455439 204 51 127
0.345221 0.204422 0.055674 76 0 153
-0.329745 0.428042 0.353341 76 0 153
0.116365 0.234399 -0.297739 76 0 153
-0.243993 -0.460695 -0.297739 76 0 153
-0.353048 0.180098 0.121679 76 0 153
-0.353048 -0.642201 0.171626 76 0 153
-0.353048 -0.121846 0.213227 76 0 153
0.304918 0.496663 0.359995 76 0 153
0.345221 -0.829460 0.146209 76 0 153
-0.027748 -0.379529 -0.297739 76 0 153
0.356303 0.784730 -0.145924 204 51 127
0.235010 0.471863 -0.297739 76 0 153
-0.349095 -0.749716 -0.144844 76 0 153
-0.353048 -0.581082 -0.123158 76 0 153
0.404413 0.636869 -0.341861 204 51 127
-0.131281 0.733858 -0.365806 255 0 0
-0.413869 0.636869 0.452042 204 51 127
-0.181204 -0.214925 0.290995 76 0 153
-0.423083 0.761567 0.102124 204 51 127
-0.307780 -0.848830 -0.235360 76 0 153
-0.261045 0.782358 0.001175 204 51 127
0.345221 0.561766 -0.215636 76 0 153
0.434165 0.758779 -0.106275 204 51 127
0.345221 0.405282 -0.179924 76 0 153
0.345221 -0.172430 0.084692 76 0 153
0.345221 0.583226 -0.186298 76 0 153
0.345221 0.326821 0.188995 76 0 153
0.060997 0.761321 -0.339442 204 51 127
0.195217 -0.911843 0.042760 153 0 76
-0.005491 -0.816714 -0.053954 153 0 76
-0.329510 -0.800820 0.234182 76 0 153
0.272594 0.452782 -0.297739 76 0 153
0.345221 0.498154 0.212398 76 0 153
-0.353048 -0.012877 -0.289382 76 0 153
0.124926 -0.633260 0.250430 76 0 153
0.269840 -0.679453 0.245951 76 0 153
-0.353048 0.393537 0.277311 76 0 153
0.181852 0.004510 0.312273 76 0 153
0.345221 0.280133 0.323001 76 0 153
-0.315248 -0.220046 0.290498 76 0 153
0.271832 -0.559142 -0.297739 76 0 153
-0.164464 -0.099412 0.302196 76 0 153
-0.288725 -0.757806 -0.238748 76 0 153
-0.167436 0.024633 0.314224 76 0 153
-0.017146 -0.911843 0.104308 153 0 76
0.265305 0.779813 -0.013957 204 51 127
-0.232058 -0.260034 0.286620 76 0 153
0.345221 -0.611825 -0.288666 76 0 153
0.409001 0.636869 -0.150639 204 51 127
-0.087546 -0.676222 -0.163750 153 0 76
-0.338805 -0.907805 -0.134540 76 0 153
0.149462 0.778368 -0.313206 204 51 127
0.166618 0.740787 0.206741 204 51 127
-0.266151 0.600844 0.370098 76 0 153
-0.313398 -0.686994 -0.231638 76 0 153
-0.184358 -0.852849 0.229137 76 0 153
-0.283635 -0.724086 -0.121963 76 0 153
-0.283635 -0.904009 -0.206188 76 0 153
-0.353048 0.448276 0.119912 76 0 153
0.139058 -0.786332 -0.186746 153 0 76
-0.142455 0.694946 0.365792 204 51 127
0.156521 0.125338 0.323989 76 0 153
-0.010952 -0.472334 0.266034 76 0 153
-0.298118 -0.356705 0.277247 76 0 153
-0.040719 0.782985 -0.098979 204 51 127
0.345221 -0.256494 -0.078992 76 0 153
-0.009403 0.741307 -0.387743 255 0 0
0.312698 -0.748081 -0.228565 153 76 0
0.268006 -0.725520 -0.093092 153 0 76
-0.283217 -0.515785 -0.297739 76 0 153
-0.252294 -0.889344 0.225598 76 0 153
0.128606 -0.753556 -0.073625 153 0 76
-0.353048 -0.448008 0.102259 76 0 153
0.226823 -0.668058 -0.286103 76 0 153
0.043003 -0.911843 0.138066 153 0 76
-0.207151 -0.041341 -0.297739 76 0 153
-0.304709 0.645159 -0.348693 204 51 127
-0.195267 -0.506496 -0.297739 76 0 153
0.197743 0.784708 -0.187078 204 51 127
-0.386790 0.636869 -0.279586 204 51 127
-0.302157 -0.911651 -0.140235 76 0 153
0.345221 0.269311 0.103358 76 0 153
-0.318293 -0.686072 -0.144582 76 0 153
0.345221 -0.146964 0.225122 76 0 153
0.116673 -0.911843 0.219719 153 0 76
-0.353048 0.308873 -0.182245 76 0 153
0.268101 0.731752 0.242693 204 51 127
-0.075119 0.641742 -0.348693 204 51 127
0.345221 -0.376365 0.254336 76 0 153
0.073650 -0.911843 0.162203 153 0 76
0.345221 -0.753732 0.233392 76 0 153
-0.348471 -0.598575 -0.297739 76 0 153
-0.353048 0.187476 -0.281722 76 0 153
-0.441993 0.678443 0.072216 204 51 127
-0.217122 0.768912 0.055539 204 51 127
-0.176004 -0.668058 -0.253275 153 0 76
0.044162 0.725928 -0.404134 255 0 0
0.366142 0.719742 0.286927 204 51 127
0.156884 0.493281 -0.297739 76 0 153
0.320827 -0.273367 -0.297739 76 0 153
-0.353048 0.304813 0.292023 76 0 153
0.345221 0.224488 -0.185683 76 0 153
-0.283752 -0.911843 0.016413 153 0 76
0.086832 0.702576 -0.348693 255 0 0
-0.353048 -0.329519 -0.199660 76 0 153
-0.204794 0.636869 0.443386 204 51 127
0.345221 -0.306293 0.153398 76 0 153
-0.027135 0.743776 -0.348056 255 0 0
0.343568 -0.889508 -0.217835 153 76 0
-0.353048 0.022263 0.212166 76 0 153
-0.108750 0.754856 0.140554 204 51 127
-0.223705 0.394611 -0.297739 76 0 153
-0.330130 0.003006 0.312127 76 0 153
-0.103960 0.723973 0.272610 204 51 127
-0.353048 0.173783 0.001953 76 0 153
-0.334795 0.246060 -0.297739 76 0 153
0.345221 0.064726 -0.219508 76 0 153
0.345221 0.234842 0.103258 76 0 153
0.036343 -0.406628 0.272406 76 0 153
0.006658 -0.911843 -0.049343 153 0 76
0.274184 -0.260985 -0.297739 76 0 153
0.343568 -0.782161 -0.228085 153 76 0
0.324976 0.048138 -0.297739 76 0 153
-0.290842 -0.885599 -0.108486 76 0 153
-0.110514 -0.187534 0.293651 76 0 153
0.291520 -0.805340 0.233744 76 0 153
0.283391 -0.834928 -0.129381 153 76 0
-0.009789 0.582979 0.368365 76 0 153
-0.001601 0.682284 0.402375 204 51 127
0.322326 0.122757 -0.297739 76 0 153
0.082482 0.742621 0.199371 204 51 127
-0.025809 0.532219 -0.297739 76 0 153
-0.158327 -0.684737 -0.145347 153 0 76
0.392653 0.780198 -0.299522 204 51 127
-0.295201 -0.389810 0.274036 76 0 153
-0.438809 0.636869 -0.189375 204 51 127
-0.353048 -0.093612 -0.167868 76 0 153
0.240407 -0.508627 0.262515 76 0 153
0.434165 0.687780 -0.020684 204 51 127
-0.353048 -0.589753 -0.235542 76 0 153
-0.082273 0.421274 -0.297739 76 0 153
-0.353048 0.082410 0.252562 76 0 153
0.132262 0.718709 0.290425 204 51 127
0.331889 0.000550 -0.297739 76 0 153
0.345221 -0.482289 -0.062560 76 0 153
-0.353048 0.522051 0.170096 76 0 153
0.217433 -0.654268 0.248393 76 0 153
0.215709 0.781380 -0.285275 204 51 127
-0.047205 -0.317449 0.281053 76 0 153
-0.353048 -0.094582 -0.117687 76 0 153
-0.023597 -0.911843 0.125971 153 0 76
0.258118 -0.738140 -0.210294 153 76 0
-0.441993 0.748376 0.061502 204 51 127
0.123024 -0.911843 0.183087 153 0 76
-0.185142 0.703501 -0.404134 255 0 0
0.011032 -0.668058 -0.207803 153 0 76
-0.353048 0.612723 -0.086455 76 0 153
-0.353048 -0.824053 -0.224658 76 0 153
-0.133175 0.763354 0.091324 204 51 127
-0.233427 0.244067 0.335502 76 0 153
0.209197 -0.757866 -0.071437 153 0 76
0.295170 0.535079 -0.297739 76 0 153
-0.353048 0.439882 0.331917 76 0 153
0.135102 0.622566 -0.297739 76 0 153
0.345221 0.003902 -0.157261 76 0 153
-0.353048 -0.348789 -0.124002 76 0 153
0.089099 -0.911843 -0.034657 153 0 76
-0.197192 0.678402 -0.348693 204 51 127
-0.218013 0.763098 0.092872 204 51 127
-0.152061 -0.837802 0.230596 76 0 153
0.100052 -0.581928 0.255407 76 0 153
0.017071 0.427996 0.353337 76 0 153
-0.353048 0.200584 -0.192664 76 0 153
-0.441993 0.782717 -0.098705 204 51 127
0.308286 -0.755427 -0.301612 153 76 0
0.276943 0.783156 -0.247957 204 51 127
-0.350936 -0.671008 0.246770 76 0 153
0.345221 -0.568215 -0.159105 76 0 153
0.345221 -0.425486 0.141164 76 0 153
0.397887 0.636869 -0.225957 204 51 127
0.272874 -0.911843 0.042947 153 0 76
-0.353048 0.393530 -0.246567 76 0 153
0.345221 -0.332752 0.037662 76 0 153
0.345221 -0.430160 -0.198176 76 0 153
0.259156 0.496645 -0.297739 76 0 153
0.322699 -0.704280 -0.259771 153 76 0
-0.351262 -0.639246 -0.297739 76 0 153
-0.225819 -0.227730 -0.297739 76 0 153
-0.353048 -0.792068 0.103943 76 0 153
0.290921 -0.920339 -0.177747 153 76 0
0.345221 -0.393584 -0.277186 76 0 153
0.167319 0.760707 -0.339940 204 51 127
0.039265 -0.826002 -0.053954 153 0 76
-0.353048 -0.134275 -0.172321 76 0 153
0.228095 -0.807608 -0.174259 153 76 0
-0.289875 0.727747 0.258629 204 51 127
0.174669 -0.593212 -0.297739 76 0 153
0.409472 0.722870 0.276344 204 51 127
-0.209252 0.707179 -0.365806 255 0 0
0.345221 -0.515997 0.008104 76 0 153
0.345221 -0.446502 0.000866 76 0 153
-0.337679 -0.764583 -0.131519 76 0 153
0.110535 -0.911843 0.039115 153 0 76
0.221034 0.667262 0.441154 204 51 127
-0.353048 -0.032782 -0.137721 76 0 153
0.025772 0.214354 0.332621 76 0 153
0.345221 0.341129 0.105097 76 0 153
-0.292697 -0.648926 -0.297739 76 0 153
-0.353048 -0.171617 -0.069929 76 0 153
-0.287098 0.782339 -0.267556 204 51 127
0.345221 0.036098 0.228576 76 0 153
0.345221 0.145707 0.177345 76 0 153
0.345221 -0.196074 0.110658 76 0 153
0.434165 0.655438 -0.244617 204 51 127
-0.185006 0.718464 0.291255 204 51 127
0.345221 0.486548 0.180677 76 0 153
0.117904 0.772778 0.024226 204 51 127
-0.101460 0.656587 0.462535 204 51 127
-0.353173 0.636869 -0.003973 204 51 127
-0.175806 0.726592 -0.365806 255 0 0
-0.353048 -0.337593 0.032584 76 0 153
0.323056 0.272575 -0.297739 76 0 153
0.344596 0.180324 0.329321 76 0 153
-0.303239 -0.682412 -0.209450 76 0 153
-0.155338 0.339369 -0.297739 76 0 153
0.318819 -0.712321 -0.104269 153 0 76
-0.188456 0.636869 0.399873 204 51 127
-0.441993 0.647042 -0.040463 204 51 127
-0.155645 0.108920 0.322397 76 0 153
-0.305811 0.150095 -0.297739 76 0 153
0.345221 0.541861 -0.229807 76 0 153
-0.271443 -0.682540 -0.149675 153 0 76
0.345221 0.038487 0.188027 76 0 153
-0.355516 0.704360 0.338170 204 51 127
0.169407 0.773372 0.019412 204 51 127
-0.337129 -0.911843 -0.051610 153 0 76
0.106897 0.524223 -0.297739 76 0 153
0.307199 -0.911843 0.154948 153 0 76
-0.422561 0.722831 -0.393965 255 0 0
-0.240260 -0.540066 -0.297739 76 0 153
0.345221 -0.057022 -0.020545 76 0 153
0.395815 0.636869 0.068099 204 51 127
-0.073080 -0.244395 -0.297739 76 0 153
0.345221 0.293744 -0.202556 76 0 153
-0.353048 0.610764 -0.039422 76 0 153
-0.256252 0.243595 -0.297739 76 0 153
-0.302462 -0.738038 -0.290978 76 0 153
-0.353048 -0.313610 0.136921 76 0 153
0.199922 -0.568659 -0.297739 76 0 153
-0.179773 0.059192 0.317575 76 0 153
0.331338 -0.763808 -0.132075 153 76 0
-0.285501 0.499881 0.360307 76 0 153
0.107580 -0.825148 -0.053954 153 0 76
-0.283635 -0.817805 -0.100253 76 0 153
0.345221 -0.320369 -0.285478 76 0 153
-0.006357 -0.285126 -0.297739 76 0 153
-0.353048 0.356376 -0.108497 76 0 153
0.345221 0.071794 0.292223 76 0 153
0.345221 -0.790123 0.102806 76 0 153
-0.353048 -0.484474 -0.297063 76 0 153
0.311746 -0.534839 0.259973 76 0 153
-0.353048 -0.821382 -0.031143 76 0 153
0.252148 0.331658 0.343995 76 0 153
-0.018605 -0.520874 0.261328 76 0 153
-0.334948 0.636869 0.404884 204 51 127
-0.353048 -0.846583 0.217413 76 0 153
0.065530 0.784701 -0.201305 204 51 127
0.345221 -0.440904 -0.035756 76 0 153
-0.353048 0.183921 -0.027653 76 0 153
-0.238245 0.188382 0.330102 76 0 153
-0.144543 0.666859 -0.348693 204 51 127
-0.031517 0.673722 0.424479 204 51 127
-0.334011 0.534263 -0.297739 76 0 153
0.113194 0.784727 -0.152230 204 51 127
0.046628 0.134416 -0.297739 76 0 153
0.310592 -0.033990 0.308539 76 0 153
0.107619 -0.075871 -0.297739 76 0 153
0.097166 -0.678519 0.246041 76 0 153
-0.161074 0.742003 -0.420874 255 0 0
-0.353048 0.262367 -0.191972 76 0 153
0.281559 0.730308 -0.404134 255 0 0
-0.353048 -0.217054 0.166951 76 0 153
-0.282011 -0.911843 0.221703 76 0 153
-0.353048 -0.466740 0.043647 76 0 153
-0.353048 -0.023093 -0.106918 76 0 153
-0.255373 -0.806369 -0.165698 76 0 153
-0.353048 -0.668167 -0.159462 76 0 153
-0.441993 0.765087 0.021992 204 51 127
0.175978 -0.911843 0.165662 153 0 76
-0.125512 0.453972 0.355856 76 0 153
-0.090393 -0.911843 0.012528 153 0 76
0.262124 0.625790 0.372517 76 0 153
-0.361612 0.774593 -0.323330 204 51 127
0.042835 -0.017052 0.310182 76 0 153
-0.320777 -0.911843 0.129338 153 0 76
-0.164338 -0.700899 -0.119210 153 0 76
-0.336052 -0.732778 -0.087217 76 0 153
-0.353048 0.385716 -0.034448 76 0 153
0.345221 0.324917 0.250981 76 0 153
0.113993 -0.056581 0.306349 76 0 153
-0.007722 -0.312183 0.281564 76 0 153
-0.407077 0.682894 -0.348693 255 0 0
-0.173937 -0.265584 -0.297739 76 0 153
-0.045437 -0.395378 0.273496 76 0 153
0.202576 -0.671213 -0.182637 153 0 76
0.345221 0.576461 0.188207 76 0 153
0.011062 0.729229 0.252733 204 51 127
0.296935 0.779511 -0.306923 204 51 127
-0.416807 0.636869 0.189561 204 51 127
-0.353048 0.307867 0.341207 76 0 153
0.345221 -0.239396 0.160761 76 0 153
-0.270551 0.314337 0.342316 76 0 153
0.121891 0.636869 -0.320081 76 0 153
0.047602 -0.568053 -0.297739 76 0 153
0.294225 -0.858041 -0.224123 153 76 0
0.177104 0.003256 -0.297739 76 0 153
0.023441 0.031508 -0.297739 76 0 153
0.077251 -0.911843 0.212546 153 0 76
-0.334382 0.576659 0.367752 76 0 153
-0.018791 -0.796214 0.234629 76 0 153
-0.353048 -0.887689 -0.231363 76 0 153
-0.285117 0.748915 0.169111 204 51 127
-0.344503 0.766436 0.072697 204 51 127
-0.353048 0.345267 0.038883 76 0 153
-0.125221 0.780039 -0.301444 204 51 127
0.345221 0.218089 0.131485 76 0 153
-0.293020 -0.751628 -0.142511 76 0 153
0.216155 -0.257038 -0.297739 76 0 153
-0.353048 -0.384523 -0.244370 76 0 153
-0.344915 -0.625795 0.251154 76 0 153
-0.441993 0.718051 0.254611 204 51 127
0.434165 0.652649 -0.039249 204 51 127
-0.030289 -0.840921 -0.053954 153 0 76
0.118486 -0.112706 -0.297739 76 0 153
0.274154 -0.893331 -0.159803 153 76 0
0.009155 0.017584 0.313540 76 0 153
-0.280561 0.087820 -0.297739 76 0 153
-0.063935 -0.221746 0.290333 76 0 153
-0.353048 0.056809 0.067918 76 0 153
0.029108 -0.086913 0.303407 76 0 153
0.109464 -0.617231 -0.297739 76 0 153
0.148666 0.593657 0.369401 76 0 153
-0.371038 0.636869 0.022749 204 51 127
0.345221 0.552604 0.313037 76 0 153
-0.390725 0.769193 0.053266 204 51 127
-0.353048 -0.682311 0.134923 76 0 153
0.345221 0.479398 0.337921 76 0 153
-0.253615 0.606908 -0.297739 76 0 153
0.078442 -0.543341 -0.297739 76 0 153
-0.020167 0.494978 -0.297739 76 0 153
-0.353048 0.634877 0.111917 76 0 153
0.400912 0.636869 0.238062 204 51 127
0.001166 0.632174 0.373135 204 51 127
-0.147251 0.526938 0.362931 76 0 153
0.201883 0.698355 0.355792 204 51 127
-0.353048 0.564389 -0.069456 76 0 153
0.048524 0.267596 -0.297739 76 0 153
0.345221 -0.593514 -0.263274 76 0 153
-0.016348 0.784703 -0.197617 204 51 127
0.128433 0.013067 -0.297739 76 0 153
0.254301 -0.775419 -0.062764 153 0 76
-0.344537 -0.775076 -0.074169 76 0 153
-0.244573 -0.668058 -0.230113 153 0 76
-0.353048 -0.781351 -0.169629 76 0 153
-0.163839 -0.785357 0.235682 76 0 153
-0.353048 0.614249 0.157153 76 0 153
0.345221 -0.266233 0.187222 76 0 153
-0.353048 0.235509 0.200544 76 0 153
-0.071543 0.404129 0.351022 76 0 153
-0.353048 -0.271417 0.082275 76 0 153
0.107211 0.606506 0.370647 76 0 153
0.208206 0.732479 0.239801 204 51 127
-0.353048 0.238537 0.041406 76 0 153
0.068821 0.657860 -0.348693 204 51 127
0.345221 0.260462 -0.077614 76 0 153
0.017216 0.706931 0.330279 204 51 127
0.152540 -0.879532 0.226550 76 0 153
-0.034892 -0.795357 -0.201354 153 0 76
0.164084 -0.366942 0.276254 76 0 153
0.204970 -0.911843 -0.047247 153 0 76
0.345221 -0.898560 -0.030525 76 0 153
0.396834 0.636869 0.315203 204 51 127
-0.049430 0.389280 -0.297739 76 0 153
-0.353048 -0.360537 -0.235397 76 0 153
-0.113915 -0.630815 0.250667 76 0 153
-0.353048 0.506493 -0.225445 76 0 153
-0.236143 0.780776 -0.292561 204 51 127
0.345221 -0.643728 -0.199217 76 0 153
-0.278359 -0.673699 0.246508 76 0 153
-0.053775 0.017773 0.313559 76 0 153
0.146823 -0.686354 -0.142161 153 0 76
0.075736 -0.731516 0.240902 76 0 153
-0.283635 -0.759521 -0.094928 76 0 153
-0.353048 -0.878770 0.089680 76 0 153
0.287459 0.754992 0.139898 204 51 127
0.274154 -0.836695 -0.109491 153 76 0
-0.353048 -0.212318 -0.157120 76 0 153
0.339930 -0.722820 -0.268584 153 76 0
-0.010124 0.784721 -0.162461 204 51 127
-0.340109 0.717597 0.294188 204 51 127
0.278939 0.636869 0.397682 204 51 127
-0.144689 0.634464 -0.297739 76 0 153
0.345221 -0.751318 0.092923 76 0 153
0.000222 0.713997 0.306369 204 51 127
0.345221 -0.556986 0.104402 76 0 153
-0.353048 0.475176 -0.091658 76 0 153
0.345221 0.592838 0.267617 76 0 153
-0.131947 -0.551164 -0.297739 76 0 153
0.284994 0.773511 0.018291 204 51 127
-0.054553 -0.490014 -0.297739 76 0 153
-0.045713 -0.668058 -0.268955 153 0 76
-0.353048 0.489932 -0.038278 76 0 153
-0.121903 0.252165 0.336287 76 0 153
-0.215053 0.534676 -0.297739 76 0 153
0.171336 0.784731 -0.144756 204 51 127
-0.353048 0.521563 -0.066752 76 0 153
0.004491 0.443528 -0.297739 76 0 153
-0.036566 0.644596 -0.348693 204 51 127
0.267311 0.636869 0.439645 204 51 127
0.345221 0.605518 0.007708 76 0 153
-0.441993 0.735660 -0.117471 204 51 127
0.345221 -0.001939 -0.015863 76 0 153
0.323800 -0.753348 -0.077031 153 76 0
-0.082547 -0.388986 0.274116 76 0 153
-0.441993 0.686901 0.228948 204 51 127
0.152133 -0.601373 -0.297739 76 0 153
-0.228337 0.593590 0.369394 76 0 153
-0.353048 -0.273794 0.038111 76 0 153
-0.138198 -0.152418 0.297056 76 0 153
-0.346803 0.725068 0.268904 204 51 127
0.074176 0.721063 -0.421247 255 0 0
0.233238 -0.911843 -0.059403 153 0 76
-0.145285 -0.269510 0.285702 76 0 153
-0.353048 0.016178 0.310807 76 0 153
-0.283635 -0.881263 -0.243329 76 0 153
-0.039824 0.769220 0.053048 204 51 127
-0.308700 -0.922317 -0.175173 76 0 153
-0.353048 -0.251188 0.277578 76 0 153
0.323844 0.673590 0.424818 204 51 127
-0.353048 -0.424812 0.252075 76 0 153
0.086327 -0.709218 -0.108928 153 0 76
0.345221 0.252175 -0.185617 76 0 153
0.019718 -0.377543 0.275226 76 0 153
-0.096655 0.778946 -0.310881 204 51 127
0.345221 0.392588 0.165336 76 0 153
-0.142457 -0.014052 0.310473 76 0 153
0.298745 -0.911843 0.048622 153 0 76
0.345221 -0.009379 0.052950 76 0 153
0.141575 0.005439 0.312363 76 0 153
0.180799 0.048008 0.316490 76 0 153
0.052415 -0.652578 -0.297739 76 0 153
0.332884 0.712092 0.312817 204 51 127
-0.232347 -0.793699 -0.057916 153 0 76
-0.424584 0.747476 0.176030 204 51 127
0.076083 0.301002 0.341023 76 0 153
-0.023453 0.373374 0.348040 76 0 153
0.142324 0.352347 0.346001 76 0 153
-0.222683 0.636869 -0.313707 76 0 153
-0.353048 -0.740692 -0.251735 76 0 153
0.289303 0.784698 -0.207137 204 51 127
0.054944 0.766052 0.075019 204 51 127
0.405254 0.662591 0.453211 204 51 127
-0.180902 0.515791 -0.297739 76 0 153
0.345221 -0.003283 0.095560 76 0 153
-0.384544 0.718246 -0.365806 255 0 0
0.293739 -0.392487 0.273777 76 0 153
0.345221 -0.394502 -0.133611 76 0 153
-0.044093 -0.911843 0.019155 153 0 76
0.247859 -0.911843 0.009844 153 0 76
-0.128372 -0.840849 -0.053954 153 0 76
-0.031872 0.754866 0.140505 204 51 127
-0.161434 0.767859 0.064063 204 51 127
-0.129462 0.738616 -0.421247 255 0 0
-0.353048 -0.646183 -0.251836 76 0 153
0.051495 -0.911843 0.090048 153 0 76
-0.441993 0.689363 -0.252424 204 51 127
0.292809 0.059420 -0.297739 76 0 153
-0.353048 0.615766 0.053727 76 0 153
0.345221 0.051535 0.126924 76 0 153
0.162140 -0.813386 0.232964 76 0 153
0.342185 0.690190 0.379748 204 51 127
0.345221 -0.799568 0.074594 76 0 153
0.206665 -0.721256 -0.096541 153 0 76
-0.004725 0.350299 -0.297739 76 0 153
0.345221 -0.008164 -0.246119 76 0 153
-0.353048 -0.516164 -0.137522 76 0 153
0.066140 -0.688855 -0.137234 153 0 76
-0.217776 0.729211 -0.421247 255 0 0
-0.169336 0.651639 -0.348693 204 51 127
0.345221 0.587752 0.311646 76 0 153
0.080271 -0.046761 -0.297739 76 0 153
0.298296 -0.355386 0.277374 76 0 153
-0.307280 0.696745 -0.348693 204 51 127
-0.005849 -0.204394 0.292016 76 0 153
-0.396247 0.730404 0.248057 204 51 127
0.345221 0.021552 -0.056587 76 0 153
-0.232613 -0.442420 0.268935 76 0 153
0.345221 0.265436 0.065886 76 0 153
-0.286645 -0.790970 0.235137 76 0 153
-0.353048 -0.214442 0.018063 76 0 153
0.072307 -0.356424 -0.297739 76 0 153
0.345221 0.224707 -0.270773 76 0 153
0.181011 0.755208 0.138859 204 51 127
0.274154 -0.803966 -0.275584 153 76 0
0.210592 -0.443305 0.268849 76 0 153
0.345221 0.548868 -0.022115 76 0 153
0.046464 -0.710525 -0.107314 153 0 76
0.345221 -0.628784 0.019786 76 0 153
-0.353048 -0.223941 -0.260815 76 0 153
-0.027237 -0.009599 -0.297739 76 0 153
0.345221 -0.602494 0.245777 76 0 153
-0.161757 0.594971 -0.297739 76 0 153
-0.353048 -0.220078 -0.018250 76 0 153
0.345221 0.336739 0.130878 76 0 153
0.434165 0.659067 0.259294 204 51 127
0.199671 0.719100 -0.395220 255 0 0
0.345221 -0.031606 0.184708 76 0 153
0.338992 -0.911843 0.037541 153 0 76
-0.353048 0.398208 -0.009669 76 0 153
0.417052 0.719661 -0.378633 255 0 0
0.256323 -0.827769 0.231569 76 0 153
-0.141780 -0.791244 -0.176574 153 0 76
0.206657 0.783455 -0.240766 204 51 127
-0.353048 0.119866 0.187623 76 0 153
-0.353048 -0.150643 -0.142095 76 0 153
0.079061 0.636869 0.379616 76 0 153
0.175157 0.177688 -0.297739 76 0 153
0.395837 0.759363 0.115445 204 51 127
0.248662 -0.130862 -0.297739 76 0 153
0.281983 -0.687489 -0.207249 153 76 0
-0.032508 -0.703363 -0.116168 153 0 76
0.277748 0.181815 -0.297739 76 0 153
-0.353048 0.481343 -0.130001 76 0 153
